# .PCD v0.7 - Point Cloud Data file format
VERSION 0.7
FIELDS x y z
SIZE 4 4 4
TYPE F F F
COUNT 1 1 1
WIDTH 1410
HEIGHT 1
VIEWPOINT 0 0 0 0 0.5 0 0
POINTS 1410
DATA ascii
0.010951 0.079535998 -0.029741
0.020169999 0.105632 -0.026008001
0.023995001 0.103384 -0.027849
0.017566999 0.103791 -0.027674999
0.04442 0.087934002 -0.029239001
0.042027999 0.089308999 -0.02932
0.045201998 0.091991998 -0.029157
0.057411999 0.101634 0.030230001
0.057379 0.096372999 0.030114001
0.060038999 0.096210003 0.03001
0.064211003 0.100943 0.030022001
0.065118998 0.106361 0.028822999
0.057411999 0.101634 0.030230001
0.051993001 0.108228 0.026014
0.049485002 0.108452 0.025744
0.049109001 0.106357 0.029649001
0.062703997 0.092664003 0.030024
0.069801003 0.088425003 0.029587001
0.069577001 0.091227002 0.029511999
0.074992999 0.085951999 0.023156
0.074337997 0.090530001 0.027574001
0.074014999 0.086774997 0.028489999
0.075259998 0.093452998 0.020112
0.075741 0.092524998 0.014037
0.075262003 0.094453 0.019827999
0.072642997 0.10795 0.019727999
0.072885998 0.107487 0.016348001
0.071059003 0.109267 0.016208
0.074418001 0.082939997 0.026534
0.074786998 0.081786998 0.023460999
0.074688002 0.084527999 0.025309
0.074786998 0.081786998 0.023460999
0.075191997 0.087575004 0.021586001
0.074992999 0.085951999 0.023156
0.073426001 0.080067001 0.028601
0.074386999 0.079397 0.026387
0.074329004 0.081044003 0.026786
0.051768001 0.080537997 0.030174
0.048824001 0.070044003 0.029936999
0.059365999 0.076747999 0.029998999
0.074037999 0.064383 0.026703
0.074817002 0.066843003 0.022198001
0.074100003 0.066970997 0.026395001
0.074368998 0.054409999 0.025872
0.072976001 0.055362999 0.029131001
0.073524997 0.047109 0.028337
0.075323001 0.076505996 0.018569
0.076428004 0.067043997 0.0078819999
0.076279998 0.075774997 0.0082639996
0.071985997 0.107412 0.011909
0.069196999 0.108755 0.0098639997
0.071059003 0.109267 0.016208
0.075368002 0.103326 -0.015294
0.075635001 0.100813 -0.012336
0.075730003 0.099529997 -0.015464
0.075879999 0.094232999 0.0073270001
0.075741 0.092524998 0.014037
0.076150998 0.087020002 0.0085380003
0.076517001 0.084614001 0.0022100001
0.075879999 0.094232999 0.0073270001
0.076150998 0.087020002 0.0085380003
0.076517001 0.084614001 0.0022100001
0.076546997 0.08839 -0.0072209998
0.076144002 0.093195997 -0.001304
0.061756 0.103601 -0.0088529997
0.058254 0.105295 -0.013284
0.055424001 0.104912 -0.010662
0.055029999 0.104655 -0.027752001
0.048652001 0.104943 -0.026784999
0.051922001 0.104992 -0.021557
0.050554998 0.092091002 -0.029211
0.047991998 0.098773003 -0.028875001
0.054862998 0.098522998 -0.028790999
0.063896 0.104511 -0.028008999
0.055029999 0.104655 -0.027752001
0.059974998 0.104339 -0.023742
0.063529998 0.086499996 -0.028277
0.058818001 0.087958001 -0.028678
0.060883999 0.090268999 -0.028701
0.052781001 0.086204 -0.02892
0.050554998 0.092091002 -0.029211
0.056147002 0.092936002 -0.028994
0.063529998 0.086499996 -0.028277
0.057574 0.078594998 -0.029045001
0.053530999 0.083008997 -0.028898999
0.050349001 0.068037003 -0.029344
0.034699 0.049695 -0.029934
0.039620999 0.068053998 -0.029728999
0.061411999 0.063354 -0.028934
0.050349001 0.068037003 -0.029344
0.061592001 0.071469001 -0.028893
0.075514004 0.099717997 -0.027280999
0.074106 0.103363 -0.028151
0.075066999 0.104361 -0.027613999
0.075597003 0.095693 -0.026927
0.075514004 0.099717997 -0.027280999
0.075662002 0.096562997 -0.024888
0.076035999 0.051860999 -0.021373
0.076027997 0.054276001 -0.02238
0.076223999 0.056547999 -0.017848
0.075703003 0.063138001 -0.023154
0.075851001 0.061028 -0.022022
0.074951001 0.061110999 -0.026310001
-0.074979998 0.049761001 0.029556001
-0.071638003 0.049964 0.029452
-0.070404999 0.052170999 0.029456999
-0.075998999 0.035103001 0.022923
-0.074754998 0.036417 0.029820999
-0.074770004 0.042964 0.029863
-0.062368002 0.018371001 0.029077001
-0.063321002 0.027515 0.029008999
-0.069463 0.024506999 0.029580999
-0.076172002 0.01148 0.021241
-0.074515 0.011188 0.029340999
-0.076191999 0.019919001 0.023460999
-0.076141 0.045054 -0.0090340003
-0.076374002 0.049869001 -0.0035880001
-0.07615 0.054967001 -0.0093069999
-0.076113999 0.027686 0.01897
-0.076289997 0.026953001 0.0066269999
-0.076388001 0.020002 0.015003
-0.07615 0.054967001 -0.0093069999
-0.075709 0.054398 -0.017566999
-0.075750001 0.050211001 -0.017921999
-0.075544 0.029113 -0.021361001
-0.075208999 0.032219999 -0.025679
-0.075565003 0.02596 -0.021405
-0.075539 0.033780001 -0.021555999
-0.075487003 0.031314 -0.022791
-0.076164 0.03056 -0.014132
-0.076110996 0.015814001 -0.017766999
-0.076174997 0.0027610001 -0.017176
-0.076471999 0.010099 -0.0095929997
-0.062350001 -0.00073000003 0.028675999
-0.070078 -0.0066459998 0.028767001
-0.066105999 -0.010944 0.02878
-0.075240001 -0.010845 0.028860001
-0.076518998 -0.006205 0.016053
-0.075916998 -0.015674001 0.023972001
-0.073605001 -0.023205001 0.029387999
-0.068182997 -0.018964 0.028721999
-0.071284004 -0.018502999 0.028836999
-0.076684996 -0.020831 0.003728
-0.076590002 -0.018743999 0.010426
-0.076615997 -0.018335 0.0076239998
-0.069133997 -0.027874 0.02908
-0.068048999 -0.026787 0.029072
-0.073605001 -0.023205001 0.029387999
-0.072736003 -0.047835 0.028839
-0.072949998 -0.043483 0.028543999
-0.074194998 -0.045756999 0.028423
-0.074813999 -0.052409999 0.028419999
-0.075723 -0.053854 0.027572
-0.071399003 -0.054722 0.028743001
-0.076494999 -0.047837999 0.017632
-0.076401003 -0.045173001 0.01788
-0.076507002 -0.045713 0.013775
-0.076534003 -0.0036830001 -0.0096279997
-0.076541997 0.00562 0.00028499999
-0.076471999 0.010099 -0.0095929997
-0.076541997 0.00562 0.00028499999
-0.076534003 -0.0036830001 -0.0096279997
-0.076509997 -0.0046259998 -0.001481
-0.076695003 -0.015959 0.001061
-0.076684996 -0.020831 0.003728
-0.076707996 -0.015868001 0.003423
-0.076618999 -0.012132 -0.0052939998
-0.076695003 -0.015959 0.001061
-0.076701999 -0.011247 0.002991
-0.076534003 -0.0036830001 -0.0096279997
-0.076185003 -0.0094879996 -0.017316001
-0.076390997 -0.011842 -0.014042
-0.076465003 -0.012646 -0.012132
-0.076534003 -0.0036830001 -0.0096279997
-0.076390997 -0.011842 -0.014042
-0.076390997 -0.011842 -0.014042
-0.076448999 -0.01846 -0.012193
-0.076465003 -0.012646 -0.012132
-0.075384997 -0.0090300003 -0.026772
-0.075857997 -0.0033179999 -0.023228001
-0.074465998 -0.00095900003 -0.027325001
-0.076596998 -0.021186 -0.0053429999
-0.076599002 -0.01523 -0.0058470001
-0.076521002 -0.015564 -0.0088849999
-0.076696999 -0.034768999 -0.0092359995
-0.076853998 -0.042879 -0.0067679998
-0.076701 -0.030568 0.00067400001
-0.076508 -0.051831 -0.018462
-0.076697998 -0.056816999 -0.013018
-0.076733999 -0.046861999 -0.011883
-0.064333998 -0.025774 -0.028212
-0.068819001 -0.023281001 -0.028216001
-0.068384998 -0.020361001 -0.028261
-0.076438002 -0.032451 -0.017387999
-0.076187998 -0.021206999 -0.018263999
-0.075877003 -0.030802 -0.025431
-0.071780004 -0.022810001 -0.027836001
-0.070717998 -0.026465001 -0.027961999
-0.074873999 -0.025947001 -0.027074
-0.075857997 -0.025521001 -0.024714001
-0.074873999 -0.025947001 -0.027074
-0.075521998 -0.027864 -0.026554
-0.068575002 -0.029060001 -0.028061001
-0.072780997 -0.028184 -0.027760999
-0.070717998 -0.026465001 -0.027961999
-0.070321999 -0.035549 -0.028207
-0.073797002 -0.033831 -0.027276
-0.072627999 -0.031688999 -0.027669
-0.074873999 -0.025947001 -0.027074
-0.070717998 -0.026465001 -0.027961999
-0.072780997 -0.028184 -0.027760999
-0.071950004 -0.041019 -0.027690001
-0.075121 -0.038904 -0.026921
-0.072379999 -0.037769999 -0.027666001
-0.070321999 -0.035549 -0.028207
-0.072379999 -0.037769999 -0.027666001
-0.072515003 -0.035365999 -0.027586
-0.076357998 -0.038575999 -0.020336
-0.075121 -0.038904 -0.026921
-0.075525001 -0.043742999 -0.026713001
-0.069927 -0.047821 -0.028096
-0.071795002 -0.045469999 -0.027743001
-0.072099 -0.04335 -0.027605999
-0.046557002 0.043430001 0.028922001
-0.048044 0.052212 0.029079
-0.053925999 0.046551 0.02901
-0.039735999 0.053798001 0.029068001
-0.046557002 0.043430001 0.028922001
-0.038920999 0.037271 0.028864
-0.062964998 0.0116 0.029269001
-0.052196998 0.015844001 0.028743001
-0.062368002 0.018371001 0.029077001
-0.037434001 0.027678 0.028468
-0.038605001 0.017854 0.028611001
-0.028372999 0.014797 0.028263001
-0.0058820001 0.018794 0.028343
-0.010615 0.027317001 0.028066
-0.017524 0.02526 0.028175
-0.057966001 0.059946001 -0.027899999
-0.049913999 0.062167 -0.028212
-0.049717002 0.054752 -0.028471
-0.047428999 0.020408999 -0.029278001
-0.040940002 0.026076 -0.029542999
-0.041974001 0.016563 -0.029741
-0.075767003 0.014694 -0.021992
-0.074979998 0.012878 -0.026582999
-0.075850002 0.0089260004 -0.022856001
-0.047428999 0.020408999 -0.029278001
-0.055856999 0.014844 -0.028682999
-0.055424999 0.024577999 -0.028586
-0.038761001 0.053525001 -0.029141
-0.043251 0.045524999 -0.029142
-0.049717002 0.054752 -0.028471
-0.031355999 0.021678001 -0.030183
-0.040940002 0.026076 -0.029542999
-0.036033999 0.03056 -0.029716
-0.022526 0.016125999 -0.030678
-0.024131 0.014741 -0.030568
-0.024220999 0.022529 -0.030563001
-0.060816001 -0.016751001 0.028659999
-0.057907999 -0.024179 0.028868999
-0.050928999 -0.017113 0.028909
-0.046162002 -0.01166 0.028808
-0.03726 -0.0098890001 0.028941
-0.045494001 0.0059409998 0.028928
-0.055098999 -0.043977 0.029367
-0.064571999 -0.049307 0.029004
-0.056473002 -0.053328 0.029059
-0.045733001 -0.029177001 0.029072
-0.034233 -0.034637 0.029514
-0.037519 -0.023006 0.029263999
-0.029313 -0.051746 0.029920001
-0.022485999 -0.040495999 0.029981
-0.033921 -0.043329999 0.029771
-0.023254 -0.032508001 0.029643999
-0.014574 -0.046774 0.030130001
-0.012606 -0.030197 0.029694
-0.022485999 -0.040495999 0.029981
-0.023128999 -0.046971001 0.030065
-0.014574 -0.046774 0.030130001
-0.040376998 0.00072399998 -0.030067001
-0.040205002 0.0074479999 -0.029881001
-0.033082001 0.005105 -0.030177001
-0.041297998 -0.0093740001 -0.029851999
-0.046983 -0.013912 -0.029584
-0.044298001 -0.0061209998 -0.029735999
-0.064446002 -0.012078 -0.028643001
-0.064932004 -0.0081719998 -0.028387001
-0.063473001 -0.011896 -0.028705999
-0.063308999 -0.065683 -0.027977001
-0.071368001 -0.068424001 -0.027721001
-0.069939002 -0.064029001 -0.027949
-0.062077999 -0.041414 -0.02871
-0.061949 -0.031486999 -0.028678
-0.057183001 -0.034986001 -0.028801
-0.062077999 -0.041414 -0.02871
-0.057183001 -0.034986001 -0.028801
-0.052671999 -0.04104 -0.029363001
-0.041297998 -0.0093740001 -0.029851999
-0.040594 -0.0054529998 -0.029898999
-0.038842998 -0.0047269999 -0.030014999
-0.03503 0.00019999999 -0.030145001
-0.036633 -0.001722 -0.030158
-0.040376998 0.00072399998 -0.030067001
-0.038842998 -0.0047269999 -0.030014999
-0.040376998 0.00072399998 -0.030067001
-0.036818001 -0.0036760001 -0.030146999
-0.046227001 -0.03028 -0.029510999
-0.040215999 -0.034662999 -0.029913001
-0.047203001 -0.036623999 -0.029344
-0.042243 -0.022487 -0.029719001
-0.035535 -0.028728999 -0.029934
-0.040215999 -0.034662999 -0.029913001
-0.074423 -0.083501004 0.027853001
-0.068069004 -0.073259003 0.028955
-0.075121999 -0.077826999 0.027396001
-0.064652003 -0.065324999 0.028693
-0.070064999 -0.068097003 0.028712001
-0.067363001 -0.069825999 0.028767001
-0.075723 -0.053854 0.027572
-0.076272003 -0.050069001 0.02675
-0.076113001 -0.053355999 0.025287
-0.076805003 -0.044445001 0.001059
-0.076604001 -0.053383 0.0059389998
-0.076659001 -0.043894 0.0074530002
-0.076471001 -0.054106001 0.013279
-0.076604001 -0.053383 0.0059389998
-0.076545998 -0.060293999 0.012036
-0.076039001 -0.079217002 0.021655001
-0.076332003 -0.075039998 0.019002
-0.076277003 -0.081193998 0.018285001
-0.070510998 -0.096005999 0.028432
-0.071828999 -0.102852 0.028407
-0.064280003 -0.101309 0.028462
-0.076425999 -0.081602998 0.012131
-0.076467998 -0.092399001 0.0090899998
-0.076163001 -0.087935001 0.0162
-0.075603999 -0.049716 -0.026763
-0.076454997 -0.059112001 -0.020878
-0.076508 -0.051831 -0.018462
-0.076723002 -0.065508999 -0.012926
-0.076664999 -0.059080999 -0.0030509999
-0.076697998 -0.056816999 -0.013018
-0.071645997 -0.053583 -0.027806001
-0.075603999 -0.049716 -0.026763
-0.071555004 -0.052046999 -0.027781
-0.076713003 -0.089842997 0.0026149999
-0.076724 -0.087130003 -0.0027129999
-0.076877996 -0.092919998 -0.003117
-0.073625997 -0.065783001 -0.027974
-0.075721003 -0.065986998 -0.027175
-0.072139002 -0.062541001 -0.027787
-0.069747001 -0.103835 -0.027694
-0.069587 -0.109741 -0.026213
-0.073596999 -0.108081 -0.027843
-0.073728003 -0.10642 -0.028293001
-0.076036997 -0.108344 -0.027921
-0.073673002 -0.104621 -0.028289
-0.053089 -0.09279 0.028890001
-0.055537999 -0.091968998 0.028860001
-0.054584 -0.097901002 0.028693
-0.043132 -0.107114 0.028454
-0.042229999 -0.09787 0.028662
-0.047517002 -0.103082 0.028554
-0.034426 -0.096841 0.028813001
-0.039168999 -0.096831001 0.028757
-0.043132 -0.107114 0.028454
-0.024295 -0.077969998 0.029696999
-0.029123001 -0.071516998 0.02967
-0.039257001 -0.076448999 0.029511999
-0.063308999 -0.065683 -0.027977001
-0.048092999 -0.055151001 -0.029204
-0.048976 -0.064687997 -0.028788
-0.042281002 -0.071906999 -0.029478
-0.031943999 -0.071341 -0.029875999
-0.036557 -0.076650999 -0.029537
-0.044450998 -0.083040997 -0.0288
-0.055622 -0.086108997 -0.027768999
-0.050898999 -0.077500001 -0.028596999
-0.033571001 -0.057048 -0.030056
-0.031287 -0.063010998 -0.030029999
-0.040022999 -0.064709 -0.029579001
-0.020505 -0.066188 -0.030392
-0.031287 -0.063010998 -0.030029999
-0.019758999 -0.05683 -0.030517001
-0.02224 -0.049973 -0.030472999
-0.031287 -0.063010998 -0.030029999
-0.033571001 -0.057048 -0.030056
-0.030610999 -0.080631003 -0.029936999
-0.036557 -0.076650999 -0.029537
-0.031943999 -0.071341 -0.029875999
-0.011168 -0.074739002 -0.030161999
-0.022074999 -0.072939001 -0.030329
-0.020505 -0.066188 -0.030392
-0.010565 -0.086528003 -0.030022001
-0.020428 -0.086736001 -0.029971
-0.015659999 -0.080260001 -0.030204
-0.022984 -0.111257 -0.021098999
-0.022428 -0.111776 -0.016480001
-0.025412999 -0.11108 -0.021444
0.029614 0.023646999 0.029106
0.034894001 0.027677 0.029251
0.027348001 0.03067 0.028919
0.041359 0.012566 0.029434999
0.047139999 0.0038079999 0.029638
0.055521999 0.013983 0.029711001
0.055521999 0.013983 0.029711001
0.049206998 0.023298999 0.029468
0.041359 0.012566 0.029434999
-0.0090150004 0.037411001 -0.030462001
-0.018587001 0.031907 -0.030394999
-0.021878 0.042158 -0.030158
-0.00044500001 0.021454999 -0.030758999
-0.0030060001 0.023858 -0.030779
0.00025799999 0.025049999 -0.030788001
-0.012185 0.014088 -0.030836999
-0.009842 0.004917 -0.030764
-0.018819001 0.0031910001 -0.030675
-0.0083520003 0.026647 -0.030575
-0.0072880001 0.021077 -0.030796999
-0.0090340003 0.019726999 -0.030809
-0.0072880001 0.021077 -0.030796999
-0.004679 0.021943999 -0.030734001
-0.0050329999 0.016845999 -0.030951001
-0.0017350001 -0.00045399999 -0.030773001
-0.0028369999 -0.001498 -0.030773001
-0.0030350001 0.0027010001 -0.03077
-0.00184 0.0079330001 -0.030847
-0.0050329999 0.016845999 -0.030951001
0.0024260001 0.014091 -0.030889999
-0.00044500001 0.021454999 -0.030758999
0.0091819996 0.019226 -0.030748
0.0024260001 0.014091 -0.030889999
0.0065100002 0.025145 -0.030771
0.0030730001 0.030386999 -0.030689999
0.0093250005 0.031106001 -0.030689999
0.029571 0.062114 -0.02998
0.032556001 0.057147 -0.029859999
0.027775001 0.060828 -0.030099999
0.032161001 0.027872 -0.030339999
0.029982001 0.02517 -0.030453
0.025943 0.027218999 -0.030613
0.030082 0.015084 -0.030425999
0.031003 0.012002 -0.030356999
0.02355 0.011147 -0.030824
0.036272999 0.012323 -0.030083001
0.03101 0.017865 -0.03046
0.037092999 0.022067999 -0.030191001
0.036272999 0.012323 -0.030083001
0.030082 0.015084 -0.030425999
0.03101 0.017865 -0.03046
0.02355 0.011147 -0.030824
0.031003 0.012002 -0.030356999
0.029593 0.004133 -0.030424001
0.036272999 0.012323 -0.030083001
0.043051001 0.019486001 -0.029919
0.044321999 0.0086559998 -0.029828001
0.00099900004 -0.013404 0.029030999
0.011186 -0.015687 0.029338
0.010947 -0.009327 0.029074
0.0070949998 -0.031296 0.029874001
0.002447 -0.024161 0.029569
-0.001684 -0.033491001 0.029850001
0.005264 -0.035670999 0.029949
-0.001684 -0.033491001 0.029850001
0.00086899998 -0.039200999 0.030143
6.4e-05 -0.046976 0.030261001
-0.005897 -0.055399001 0.03029
0.0055840001 -0.054814 0.030358
0.024476999 -0.052749999 0.030361
0.015667999 -0.054694999 0.030536
0.022190999 -0.061604001 0.030502001
0.021956 -0.015356 0.0295
0.021005999 -0.026311999 0.029786
0.028708 -0.015141 0.029618001
0.045345001 -0.027076 0.030094
0.040353999 -0.034387 0.030316001
0.053541001 -0.035921 0.030187
-0.0028369999 -0.001498 -0.030773001
0.005018 -0.0028009999 -0.030724
-0.0040770001 -0.012903 -0.030812001
0.038872998 0.0053019999 -0.030060999
0.034959 0.0060169999 -0.030281
0.036272999 0.012323 -0.030083001
-0.001238 -0.038344 -0.030525001
-0.010393 -0.037769999 -0.030580999
-0.0057489998 -0.032598 -0.030622
0.021078 0.0023729999 -0.030639
0.02355 0.011147 -0.030824
0.029593 0.004133 -0.030424001
0.032915 -0.001498 -0.030315001
0.035576999 -0.012802 -0.030077999
0.021887001 -0.0093639996 -0.030644
0.064993002 0.047600001 0.029346
0.057202999 0.040247001 0.029595001
0.070381001 0.036632001 0.028971
0.073385999 0.030813999 0.027341001
0.074695997 0.033064 0.024101
0.073841996 0.037875 0.026807001
0.075309999 0.036683001 0.021263
0.075112998 0.028635001 0.020477001
0.075955003 0.036077 0.014052
0.074736997 0.011007 0.023598
0.075149 0.0084490003 0.018340999
0.074542999 0.014051 0.024518
0.045345001 -0.027076 0.030094
0.054223001 -0.028394001 0.030117
0.048689 -0.018296 0.029882999
0.074091002 -0.014965 0.02524
0.071702003 -0.017240001 0.028355001
0.074166 -0.018665999 0.024529001
0.075641997 -0.010001 7.4000003e-05
0.075749002 0.00053399999 -0.005866
0.075685002 -0.0027379999 0.0036150001
0.074382 -0.034862999 0.022987001
0.074399002 -0.042952999 0.021529
0.074752003 -0.03173 0.015938001
0.074432999 -0.052152 0.022600001
0.074897997 -0.051091999 0.014753
0.074399002 -0.042952999 0.021529
0.062662996 -0.054908 0.030207001
0.068501003 -0.053137001 0.029860999
0.064075999 -0.044323999 0.029878
0.073963001 -0.039595999 0.025606999
0.072834998 -0.038755 0.028247001
0.074018002 -0.041547 0.026407
0.073293999 -0.067466997 0.026699999
0.072402 -0.07023 0.028684
0.073371001 -0.069816001 0.026560999
0.060876999 0.030494999 -0.028832
0.052924 0.033386 -0.029382
0.062633999 0.039312001 -0.028726
0.076306 0.029724 -0.0050400002
0.076176003 0.027999001 -0.012517
0.076334 0.038304999 -0.012031
0.066252001 0.0041319998 -0.028886
0.060385 0.016689001 -0.029069001
0.067976996 0.0090530002 -0.02871
0.076024003 0.033682998 -0.018859001
0.076176003 0.027999001 -0.012517
0.075930998 0.026211999 -0.019114999
0.074676998 0.024336999 -0.027358999
0.075806998 0.026374999 -0.021849001
0.075805999 0.023959 -0.022018
0.067754999 0.027478 -0.028442999
0.073949002 0.03229 -0.027519001
0.074676998 0.024336999 -0.027358999
0.074676998 0.024336999 -0.027358999
0.075805999 0.023959 -0.022018
0.075727999 0.021991 -0.022893
0.068853997 -0.00041199999 -0.028642001
0.066252001 0.0041319998 -0.028886
0.06983 0.00188 -0.0285
0.06983 0.00188 -0.0285
0.066252001 0.0041319998 -0.028886
0.070046 0.0042630001 -0.028492
0.048009001 0.011959 -0.029741
0.043051001 0.019486001 -0.029919
0.050484002 0.018951001 -0.029665001
0.069291003 -0.016070999 -0.028773
0.068047002 -0.0089649996 -0.028716
0.070054002 -0.011077 -0.028487001
0.053971 -0.030898999 -0.029208999
0.057298001 -0.036075 -0.029338
0.051047001 -0.036545999 -0.029477
0.067094997 -0.031252999 -0.028669
0.067558996 -0.022213001 -0.02892
0.072673 -0.022771001 -0.028115001
0.05274 -0.023147 -0.029483
0.061073001 -0.023633 -0.029097
0.053971 -0.030898999 -0.029208999
0.072552003 -0.03049 -0.02819
0.074699998 -0.031679001 -0.027015001
0.074340001 -0.033344001 -0.027045
0.075089999 -0.036497001 -0.024517
0.075289004 -0.04465 -0.020213
0.074809 -0.042429 -0.025216
0.015667999 -0.054694999 0.030536
0.012632 -0.052935001 0.030437
0.011577 -0.055422001 0.030316999
0.0097719999 -0.106043 0.028763
0.021197001 -0.098151997 0.028927
0.0038999999 -0.098549999 0.029053999
0.032434002 -0.05937 0.030574
0.031642001 -0.067731 0.030417999
0.039602999 -0.064552002 0.030432001
0.039602999 -0.064552002 0.030432001
0.043961 -0.059723999 0.030183
0.032434002 -0.05937 0.030574
0.039602999 -0.064552002 0.030432001
0.043039002 -0.072306998 0.030148
0.049933001 -0.065490998 0.030479999
0.04535 -0.052207001 0.030354001
0.043961 -0.059723999 0.030183
0.054572001 -0.056733999 0.030267
0.049933001 -0.065490998 0.030479999
0.050257001 -0.078763001 0.030005001
0.055939 -0.071566001 0.030071
0.0062560001 -0.067140996 -0.030557999
-0.00039100001 -0.068332002 -0.030381
0.0061010001 -0.060518 -0.030311
0.0096230004 -0.047628999 -0.030621
0.019820999 -0.040238 -0.030627999
0.017766001 -0.049307 -0.030618001
0.015252 -0.058906 -0.030754
0.021044999 -0.05477 -0.03066
0.020330001 -0.064636 -0.030618999
0.030484 -0.058768 -0.030289
0.028574999 -0.068787001 -0.030366
0.020330001 -0.064636 -0.030618999
0.0097719999 -0.106043 0.028763
0.0038999999 -0.098549999 0.029053999
-0.0012000001 -0.107113 0.028760999
0.025622999 -0.109196 0.027148001
0.028899999 -0.11104 0.019747
0.033064 -0.109544 0.027466999
0.072929002 -0.105918 0.029030999
0.069211997 -0.100461 0.029301001
0.064112999 -0.108212 0.029568
0.00514 -0.111765 -0.018942
0.0039639999 -0.108415 -0.027039999
0.0081270002 -0.111015 -0.024628
0.0094370004 -0.10595 -0.029344
0.015151 -0.098949999 -0.029696999
0.015164 -0.108579 -0.028399
0.02393 -0.093479998 -0.029596999
0.026541 -0.100123 -0.029658001
0.021042001 -0.101786 -0.029734001
0.033108 -0.092982002 -0.029881001
0.02393 -0.093479998 -0.029596999
0.028209999 -0.086814001 -0.030509001
0.035454001 -0.105404 -0.028186999
0.040924001 -0.097305998 -0.02964
0.043230001 -0.104152 -0.029573999
0.063853003 -0.072342999 0.029878
0.072249003 -0.076456003 0.028447
0.072402 -0.07023 0.028684
0.075194001 -0.067327999 0.00075100001
0.075162999 -0.065430999 -0.01152
0.075392 -0.053743999 -0.002475
0.073941 -0.10427 0.0043469998
0.074729003 -0.096418001 0.001112
0.074582003 -0.094186001 0.0087989997
0.075172998 -0.081128001 -0.003149
0.07463 -0.089496002 -0.0058220001
0.075138003 -0.083637998 -0.0082240002
0.075071 -0.078970999 -0.022042001
0.074974 -0.084738001 -0.013514
0.074890003 -0.087022997 -0.014762
0.064112999 -0.108212 0.029568
0.069211997 -0.100461 0.029301001
0.059889998 -0.101103 0.029379999
0.064112999 -0.108212 0.029568
0.071608 -0.110749 0.028589001
0.072929002 -0.105918 0.029030999
0.064112999 -0.108212 0.029568
0.061365001 -0.110923 0.025854001
0.071608 -0.110749 0.028589001
0.065798998 -0.111858 -0.01264
0.061870001 -0.111801 -0.017679
0.062820002 -0.111706 -0.019869
0.072687 -0.054752 -0.027667999
0.073513001 -0.052067 -0.027221
0.074937001 -0.052559 -0.024390999
0.071452998 -0.057319 -0.028251
0.073167004 -0.05714 -0.027166
0.073291004 -0.059136 -0.027162001
0.074198 -0.050014999 -0.026280001
0.073513001 -0.052067 -0.027221
0.071365997 -0.050009999 -0.028638
0.075289004 -0.04465 -0.020213
0.074937001 -0.052559 -0.024390999
0.074499004 -0.048519 -0.025658
0.070606999 -0.087070003 -0.028665001
0.073305003 -0.087121002 -0.027363
0.073683999 -0.088836998 -0.027122
0.073003002 -0.090871997 -0.027526001
0.070606999 -0.087070003 -0.028665001
0.073683999 -0.088836998 -0.027122
0.061507002 -0.075193003 -0.029069999
0.064234003 -0.079990998 -0.029006001
0.057507999 -0.083576001 -0.02911
0.047837999 -0.076642998 -0.029833
0.046599001 -0.068281002 -0.029887
0.053103998 -0.079021998 -0.029648
0.072823003 -0.100757 -0.027341999
0.074033 -0.098085001 -0.026621001
0.073964998 -0.103283 -0.025991
-0.067112997 0.107307 -0.024808001
-0.064324997 0.101488 -0.026446
-0.067723997 0.102177 -0.026319999
-0.053433001 0.101794 -0.026729001
-0.050515 0.097337 -0.027016999
-0.057819001 0.098823003 -0.026492
-0.037439998 0.102701 -0.027263001
-0.042484999 0.104967 -0.027109999
-0.035792999 0.106119 -0.026730999
-0.066653997 0.076215997 0.03015
-0.064133003 0.075897001 0.030243
-0.067426004 0.078939997 0.030221
0.063767999 -0.041772 -0.028981
0.067094997 -0.031252999 -0.028669
0.071806997 -0.037602 -0.028426001
-0.020016 -0.057985 0.030084999
-0.029313 -0.051746 0.029920001
-0.031842999 -0.061845999 0.029831
-0.033342 -0.091091 0.029237
-0.026838001 -0.100763 0.028658001
-0.021806 -0.095301002 0.029194999
-0.029874001 -0.102198 0.028494
-0.026742 -0.106422 0.028463
-0.026838001 -0.100763 0.028658001
-0.034426 -0.096841 0.028813001
-0.034148999 -0.106154 0.02836
-0.031707 -0.103446 0.028472999
-0.0081010005 -0.020401999 -0.030653
-0.008897 -0.028012 -0.030576
-0.019702001 -0.027057 -0.030641001
-0.071461 0.110265 0.021628
-0.073647998 0.111364 0.017295999
-0.074110001 0.109589 0.022631001
-0.075263001 0.104327 0.023809999
-0.074681997 0.107164 0.016649
-0.074638002 0.104981 0.0094579998
-0.070008002 0.112781 0.0051640002
-0.072016001 0.11252 0.00501
-0.070183001 0.112669 0.0080110002
-0.07502 0.105692 -0.002686
-0.075337999 0.102434 0.004222
-0.074638002 0.104981 0.0094579998
-0.075337999 0.102434 0.004222
-0.075310998 0.100803 0.0055470001
-0.074638002 0.104981 0.0094579998
-0.068985 0.11234 -0.005967
-0.070377998 0.110179 -0.006327
-0.070694 0.110444 -0.005531
-0.075349003 0.098747998 0.0073790001
-0.075310998 0.100803 0.0055470001
-0.075962998 0.094890997 0.003058
-0.076130003 0.082714997 0.0056159999
-0.075943001 0.085157 0.012615
-0.075962998 0.094890997 0.003058
-0.046280999 0.099301003 0.030751999
-0.054590002 0.100921 0.030301999
-0.055346999 0.092239998 0.030795
-0.0049689999 0.106565 0.029720001
-0.0097719999 0.1084 0.026609
-0.011688 0.106177 0.03019
-0.058942001 0.078994997 0.030143
-0.058368001 0.083826996 0.030347001
-0.060290001 0.081869997 0.030356999
-0.063738003 0.079305001 0.030221
-0.064133003 0.075897001 0.030243
-0.061466999 0.080139004 0.030316001
-0.021459 0.089961 0.029787
-0.020253999 0.082264997 0.029459
-0.014279 0.089183003 0.029665001
-0.007741 0.092860997 0.029565001
-0.012461 0.095907003 0.029949
-0.014279 0.089183003 0.029665001
-0.062546998 0.110357 0.022113999
-0.061889 0.109554 0.024473
-0.061138 0.110463 0.021725001
-0.027605999 0.073005997 0.029075
-0.013168 0.079772003 0.029139001
-0.020253999 0.082264997 0.029459
-0.069955997 0.111079 0.017821001
-0.067688003 0.111931 0.013649
-0.070194997 0.111878 0.014697
-0.055576 0.110106 0.023938
-0.057824999 0.109776 0.024265001
-0.056230001 0.109092 0.026134999
-0.058718 0.111847 0.014163
-0.066597 0.112319 0.0085890004
-0.067688003 0.111931 0.013649
-0.054997999 0.11062 -0.0078600002
-0.059668001 0.111912 -0.005475
-0.054724999 0.112138 0.001534
-0.053847998 0.112027 0.009997
-0.058718 0.111847 0.014163
-0.051681001 0.111334 0.017515
-0.068985 0.11234 -0.005967
-0.069948003 0.110014 -0.0071700001
-0.070377998 0.110179 -0.006327
-0.068985 0.11234 -0.005967
-0.071037002 0.112431 -0.0039070002
-0.070597 0.112695 -0.001686
-0.074638002 0.105608 -0.011166
-0.071291 0.109183 -0.0063990001
-0.070791997 0.109355 -0.011617
-0.071304001 0.108256 -0.021953
-0.072847001 0.108373 -0.020527
-0.070862003 0.108604 -0.020334
-0.03523 0.111376 0.00046700001
-0.032641001 0.11183 0.0083309999
-0.02667 0.111315 0.0039049999
-0.069876999 0.080551997 -0.026521999
-0.075250998 0.075963996 -0.025227999
-0.075060003 0.081225999 -0.024878999
-0.075250998 0.075963996 -0.025227999
-0.075548001 0.075814001 -0.019228
-0.075060003 0.081225999 -0.024878999
-0.059335001 0.070826001 -0.027442001
-0.066320002 0.063304 -0.027084
-0.070253998 0.073426001 -0.026617
-0.030888001 0.103998 -0.027352
-0.035792999 0.106119 -0.026730999
-0.030292001 0.106422 -0.026409
-0.030888001 0.103998 -0.027352
-0.032653 0.102022 -0.027419999
-0.035792999 0.106119 -0.026730999
0.026051 0.110193 0.019978
0.017727001 0.109613 0.022126
0.025297999 0.107801 0.026185
0.026051 0.110193 0.019978
0.030143 0.110736 0.015122
0.022999 0.110798 0.013872
0.043327998 0.107796 0.026702
0.041446 0.106005 0.029973
0.049109001 0.106357 0.029649001
0.040789001 0.109277 0.004733
0.046928 0.108985 0.001682
0.043101002 0.108763 -0.00072700001
-0.0083699999 0.107342 -0.023290001
-0.003548 0.105714 -0.027477
-0.0098400004 0.105944 -0.027088
-0.0098400004 0.105944 -0.027088
-0.0050459998 0.102659 -0.027966
-0.0079020001 0.102266 -0.027914001
0.007036 0.105777 -0.027547
0.005562 0.102135 -0.028115001
0.0031610001 0.102994 -0.028084001
0.0095819999 0.095480002 -0.0288
0.013585 0.094152004 -0.029099001
0.012534 0.091989003 -0.029312
0.074014999 0.086774997 0.028489999
0.071101002 0.087214999 0.029477
0.071264997 0.085530996 0.029437
0.064211003 0.100943 0.030022001
0.063313998 0.097056001 0.029997
0.065766998 0.097119004 0.029879
0.074337997 0.090530001 0.027574001
0.074950002 0.093672998 0.023111001
0.073132999 0.095968001 0.029098
0.075055003 0.102673 0.014455
0.072885998 0.107487 0.016348001
0.074294999 0.104275 0.019606
0.074450999 0.103874 0.0093350001
0.071985997 0.107412 0.011909
0.075055003 0.102673 0.014455
0.071059003 0.109267 0.016208
0.068585001 0.109258 0.02011
0.071914002 0.108822 0.022229001
0.069542997 0.081808999 0.029608
0.071101002 0.087214999 0.029477
0.069801003 0.088425003 0.029587001
0.074329004 0.081044003 0.026786
0.074786998 0.081786998 0.023460999
0.074418001 0.082939997 0.026534
0.074786998 0.081786998 0.023460999
0.075323001 0.076505996 0.018569
0.076102003 0.081373997 0.013174
0.073109001 0.074550003 0.028875999
0.074074998 0.076467 0.027029
0.073426001 0.080067001 0.028601
0.074074998 0.076467 0.027029
0.074479997 0.073586002 0.024589
0.074386999 0.079397 0.026387
0.074074998 0.076467 0.027029
0.074014999 0.073871002 0.027012
0.074479997 0.073586002 0.024589
0.072976001 0.055362999 0.029131001
0.064993002 0.047600001 0.029346
0.073524997 0.047109 0.028337
0.074198999 0.059441 0.026405999
0.072141998 0.060536999 0.029656
0.074175 0.056644 0.026528001
0.075048 0.060316 0.022151999
0.075792998 0.063175 0.015003
0.074817002 0.066843003 0.022198001
0.062899999 0.106844 -0.002356
0.061756 0.103601 -0.0088529997
0.056744002 0.106155 -0.0061840001
0.069196999 0.108755 0.0098639997
0.071985997 0.107412 0.011909
0.071799003 0.107166 0.0094250003
0.067126997 0.093422003 0.029669
0.062703997 0.092664003 0.030024
0.069577001 0.091227002 0.029511999
0.073547997 0.104912 0.0062859999
0.072668001 0.105996 0.0083649997
0.074450999 0.103874 0.0093350001
0.051922001 0.104992 -0.021557
0.059974998 0.104339 -0.023742
0.055029999 0.104655 -0.027752001
0.048652001 0.104943 -0.026784999
0.054862998 0.098522998 -0.028790999
0.047991998 0.098773003 -0.028875001
0.047991998 0.098773003 -0.028875001
0.044233002 0.105403 -0.027984001
0.048652001 0.104943 -0.026784999
0.055029999 0.104655 -0.027752001
0.063896 0.104511 -0.028008999
0.062364001 0.098766997 -0.028635001
0.075514004 0.099717997 -0.027280999
0.071395002 0.096749999 -0.028191
0.072028004 0.10028 -0.028294001
0.069067001 0.10328 -0.028344
0.062364001 0.098766997 -0.028635001
0.063896 0.104511 -0.028008999
0.048599001 0.086690001 -0.029084001
0.050554998 0.092091002 -0.029211
0.052781001 0.086204 -0.02892
0.053530999 0.083008997 -0.028898999
0.057574 0.078594998 -0.029045001
0.048009001 0.076200001 -0.029371001
0.066008002 0.065250002 -0.028520999
0.061592001 0.071469001 -0.028893
0.073604003 0.068668999 -0.027833
0.069031 0.060608 -0.028441001
0.061411999 0.063354 -0.028934
0.066008002 0.065250002 -0.028520999
0.074734002 0.104365 -0.018994
0.074830003 0.104248 -0.017866001
0.075227998 0.103971 -0.01943
-0.061175998 0.039556 0.029223001
-0.069692001 0.044666 0.029417001
-0.069582999 0.042055 0.029447
-0.069692001 0.044666 0.029417001
-0.064995997 0.048583999 0.029402001
-0.071120001 0.047959 0.029505
-0.074864998 -0.002849 0.028965
-0.068940997 0.0040239999 0.029039999
-0.074868001 0.0045380001 0.029201001
-0.068940997 0.0040239999 0.029039999
-0.074864998 -0.002849 0.028965
-0.068860002 0.000394 0.028817
-0.075998999 0.035103001 0.022923
-0.076360002 0.044711001 0.014183
-0.076288 0.034855999 0.010553
-0.075554997 0.038695 -0.021593001
-0.075943999 0.039358001 -0.016479
-0.075462997 0.04183 -0.023202
-0.075462997 0.04183 -0.023202
-0.075116999 0.038394 -0.025731999
-0.075554997 0.038695 -0.021593001
-0.075208999 0.032219999 -0.025679
-0.070926003 0.035225 -0.027109001
-0.074028999 0.027093999 -0.026773
-0.076471999 0.010099 -0.0095929997
-0.076497003 0.013407 0.001298
-0.07643 0.02358 -0.003584
-0.071292996 0.0071680001 -0.027732
-0.075135998 0.0059349998 -0.026512001
-0.074979998 0.012878 -0.026582999
-0.072024003 -0.012008 0.029069999
-0.066105999 -0.010944 0.02878
-0.071474001 -0.008804 0.028860999
-0.076627001 -0.02194 0.011998
-0.076632001 -0.022226 0.015678
-0.076590002 -0.019493001 0.015246
-0.076091997 -0.024416 0.020744
-0.076632001 -0.022226 0.015678
-0.076466002 -0.023781 0.017277
-0.076274 -0.029549001 0.018082
-0.076154001 -0.032122999 0.019055
-0.075064003 -0.032426 0.028444
-0.076205 -0.037586 0.019005001
-0.075659998 -0.043756001 0.027245
-0.076134004 -0.035315 0.019641999
-0.068742 -0.042438 0.028574999
-0.072736003 -0.047835 0.028839
-0.064571999 -0.049307 0.029004
-0.072949998 -0.043483 0.028543999
-0.075000003 -0.038681 0.028387999
-0.075659998 -0.043756001 0.027245
-0.075012997 -0.049394 0.028423
-0.074813999 -0.052409999 0.028419999
-0.072736003 -0.047835 0.028839
-0.076629996 -0.038472001 0.014404
-0.076274 -0.029549001 0.018082
-0.076701 -0.028473999 0.012167
-0.076629996 -0.038472001 0.014404
-0.076154001 -0.032122999 0.019055
-0.076274 -0.029549001 0.018082
-0.075659998 -0.043756001 0.027245
-0.076187998 -0.041832 0.019351
-0.076401003 -0.045173001 0.01788
-0.075981997 -0.006182 -0.021709999
-0.075384997 -0.0090300003 -0.026772
-0.076017 -0.0086599998 -0.021362999
-0.076438002 -0.032451 -0.017387999
-0.076558001 -0.043680999 -0.016161
-0.076696999 -0.034768999 -0.0092359995
-0.076558001 -0.043680999 -0.016161
-0.076733999 -0.046861999 -0.011883
-0.076853998 -0.042879 -0.0067679998
-0.068575002 -0.029060001 -0.028061001
-0.072627999 -0.031688999 -0.027669
-0.072780997 -0.028184 -0.027760999
-0.069927 -0.047821 -0.028096
-0.071722001 -0.047426 -0.027807999
-0.071795002 -0.045469999 -0.027743001
-0.071950004 -0.041019 -0.027690001
-0.069468997 -0.041327 -0.028209001
-0.072099 -0.04335 -0.027605999
-0.061175998 0.039556 0.029223001
-0.063321002 0.027515 0.029008999
-0.052324999 0.035634 0.029139999
-0.052196998 0.015844001 0.028743001
-0.045908 0.02695 0.028821001
-0.055082999 0.026541 0.029028
-0.016206 0.035029002 0.028465001
-0.0254 0.027496001 0.02826
-0.017524 0.02526 0.028175
-0.021524001 0.050689001 0.028356999
-0.025788 0.036734 0.028525
-0.014316 0.044333 0.02825
-0.064691 0.028294001 -0.027842
-0.070926003 0.035225 -0.027109001
-0.058402002 0.037583001 -0.028364999
-0.055856999 0.014844 -0.028682999
-0.047428999 0.020408999 -0.029278001
-0.048923999 0.0059270002 -0.029314
-0.048923999 0.0059270002 -0.029314
-0.047428999 0.020408999 -0.029278001
-0.041974001 0.016563 -0.029741
-0.064909004 -0.000421 -0.028393
-0.074465998 -0.00095900003 -0.027325001
-0.071292996 0.0071680001 -0.027732
-0.064909004 -0.000421 -0.028393
-0.064932004 -0.0081719998 -0.028387001
-0.071326002 -0.0061789998 -0.027966
-0.064932004 -0.0081719998 -0.028387001
-0.068195999 -0.012362 -0.028244
-0.074675001 -0.013712 -0.027177
-0.058949001 0.006484 -0.028773
-0.051391002 -0.002966 -0.029332001
-0.055964999 -0.001669 -0.029131999
-0.074570999 -0.019038999 -0.027259
-0.068384998 -0.020361001 -0.028261
-0.071780004 -0.022810001 -0.027836001
-0.068195999 -0.012362 -0.028244
-0.067474999 -0.016445 -0.028333999
-0.074570999 -0.019038999 -0.027259
-0.064932004 -0.0081719998 -0.028387001
-0.064909004 -0.000421 -0.028393
-0.058409002 -0.006182 -0.028783999
-0.061632 -0.013633 -0.028932
-0.058409002 -0.006182 -0.028783999
-0.054660998 -0.012129 -0.028987
-0.047093999 -0.0045940001 -0.029531
-0.048923999 0.0059270002 -0.029314
-0.040376998 0.00072399998 -0.030067001
-0.065105997 -0.084877998 0.028622
-0.067771003 -0.086263001 0.028332001
-0.065168999 -0.087462999 0.028556
-0.047093999 -0.0045940001 -0.029531
-0.040376998 0.00072399998 -0.030067001
-0.044298001 -0.0061209998 -0.029735999
-0.044298001 -0.0061209998 -0.029735999
-0.046983 -0.013912 -0.029584
-0.047093999 -0.0045940001 -0.029531
-0.044298001 -0.0061209998 -0.029735999
-0.042433001 -0.005529 -0.029837999
-0.041297998 -0.0093740001 -0.029851999
-0.068384998 -0.020361001 -0.028261
-0.067574002 -0.018412 -0.028359
-0.064333998 -0.025774 -0.028212
-0.068819001 -0.023281001 -0.028216001
-0.071780004 -0.022810001 -0.027836001
-0.068384998 -0.020361001 -0.028261
-0.061632 -0.013633 -0.028932
-0.058293998 -0.01969 -0.028744999
-0.064333998 -0.025774 -0.028212
-0.042252 -0.044555999 -0.029774001
-0.040215999 -0.034662999 -0.029913001
-0.032336 -0.042564999 -0.030283
-0.071617998 -0.063343003 0.028503999
-0.071750998 -0.060927 0.028449999
-0.075120002 -0.061616998 0.027656
-0.076332003 -0.075039998 0.019002
-0.076039001 -0.079217002 0.021655001
-0.075976998 -0.075965002 0.022059999
-0.075237997 -0.099481001 0.020552
-0.075122997 -0.10133 0.019695001
-0.074551001 -0.105371 0.024398999
-0.075103998 -0.108268 0.0036279999
-0.071369 -0.111165 0.001438
-0.071567997 -0.110978 0.003887
-0.072205998 -0.050292 -0.027649
-0.069927 -0.047821 -0.028096
-0.071555004 -0.052046999 -0.027781
-0.071488 -0.060083002 -0.027837001
-0.075571001 -0.061314002 -0.027305
-0.075589001 -0.056699999 -0.027383
-0.075999998 -0.077324003 -0.02692
-0.076378003 -0.081941001 -0.024894999
-0.076371998 -0.072862998 -0.021876
-0.075329997 -0.085405 -0.027703
-0.076375 -0.089709997 -0.021043001
-0.076378003 -0.081941001 -0.024894999
-0.072237998 -0.080826998 -0.028151
-0.075034998 -0.080374002 -0.027678
-0.075323999 -0.079682 -0.027411001
-0.072237998 -0.080826998 -0.028151
-0.075323999 -0.079682 -0.027411001
-0.074603997 -0.079279996 -0.027697001
-0.069586001 -0.073757 -0.027825
-0.062249001 -0.072379999 -0.028158
-0.065351002 -0.080615997 -0.027601
-0.074822001 -0.104664 0.017852999
-0.075122997 -0.10133 0.019695001
-0.075451002 -0.099610001 0.018367
-0.074822001 -0.104664 0.017852999
-0.075451002 -0.099610001 0.018367
-0.07491 -0.105775 0.014733
-0.074915998 -0.107954 0.0086110001
-0.074101999 -0.109158 0.0074180001
-0.073810004 -0.109327 0.012205
-0.070378996 -0.11117 -0.001275
-0.066909 -0.11116 -0.000955
-0.070867002 -0.111216 -9.6000003e-05
-0.072131 -0.094623998 -0.028579
-0.071377002 -0.092055 -0.028437
-0.067753002 -0.097474001 -0.027975
-0.044043999 -0.066675 0.029527999
-0.039257001 -0.076448999 0.029511999
-0.029123001 -0.071516998 0.02967
-0.070848003 -0.110621 -0.024164001
-0.075283997 -0.109848 -0.024464
-0.072795004 -0.110236 -0.026689
-0.063308999 -0.065683 -0.027977001
-0.069939002 -0.064029001 -0.027949
-0.066476002 -0.059347 -0.028219
-0.060543001 -0.088953003 -0.02791
-0.067753002 -0.097474001 -0.027975
-0.066301003 -0.091536999 -0.028049
-0.060543001 -0.088953003 -0.02791
-0.060931999 -0.103637 -0.027706999
-0.067753002 -0.097474001 -0.027975
-0.052042998 -0.070542999 -0.028705999
-0.044613998 -0.076899998 -0.028961999
-0.050898999 -0.077500001 -0.028596999
-0.010565 -0.086528003 -0.030022001
-0.021261999 -0.095105998 -0.028946999
-0.020428 -0.086736001 -0.029971
-0.053325001 -0.099290997 -0.027747
-0.047754001 -0.090291999 -0.028797001
-0.044319 -0.097098999 -0.028378
-0.031168001 -0.111632 -0.015985001
-0.032446001 -0.111066 -0.021447999
-0.029742001 -0.11127 -0.019847
-0.021540999 -0.104118 -0.029246001
-0.025971999 -0.106464 -0.028402001
-0.028362 -0.101754 -0.028926
-0.0058820001 0.018794 0.028343
0.0078819999 0.019949 0.028425001
0.001787 0.028514 0.028096
0.021584 0.023655999 -0.030672999
0.021475 0.029608 -0.030696999
0.023793999 0.025646999 -0.030672001
0.033879001 -0.021676 -0.030238001
0.028943 -0.026432 -0.03036
0.029129 -0.017828001 -0.03039
0.016809 -0.034568999 -0.030528
0.017343 -0.027533 -0.030470001
0.028943 -0.026432 -0.03036
0.031298 -0.034632999 -0.030296
0.028943 -0.026432 -0.03036
0.033879001 -0.021676 -0.030238001
0.049352001 0.032301001 0.029428
0.057202999 0.040247001 0.029595001
0.048280999 0.043713 0.029496999
0.071658999 0.026596 0.029077999
0.060651001 0.026879 0.029533001
0.066973001 0.019348999 0.029469
0.074704997 0.040125001 0.024236999
0.075309999 0.036683001 0.021263
0.075272001 0.04152 0.019095
0.066973001 0.019348999 0.029469
0.073914997 0.022526 0.028255999
0.071658999 0.026596 0.029077999
0.074835002 0.030162999 0.023388
0.075112998 0.028635001 0.020477001
0.075309999 0.036683001 0.021263
0.074993998 0.045669001 0.02248
0.075695001 0.053725 0.016494
0.074575 0.051098 0.024845
0.073385999 0.030813999 0.027341001
0.073914997 0.022526 0.028255999
0.074835002 0.030162999 0.023388
0.068778999 0.0051810001 0.029289
0.066973001 0.019348999 0.029469
0.055521999 0.013983 0.029711001
0.074542999 0.014051 0.024518
0.073003002 0.015456 0.028240001
0.073468 0.0070440001 0.027824
0.073468 0.0070440001 0.027824
0.066973001 0.019348999 0.029469
0.068778999 0.0051810001 0.029289
0.074748002 0.0086589996 0.023322999
0.074914999 0.002754 0.021341
0.075149 0.0084490003 0.018340999
0.073468 0.0070440001 0.027824
0.07102 -0.0034709999 0.028693
0.074132003 0.00094 0.025698001
0.076301001 0.024351001 0.001907
0.076306 0.029724 -0.0050400002
0.076439999 0.032575 0.004127
0.076066002 0.016166 0.0070079998
0.075570002 0.015558 0.015928
0.075773001 0.01004 0.010779
0.075489998 0.0035019999 0.012147
0.075891003 0.0045250002 0.00336
0.075773001 0.01004 0.010779
0.076173998 0.015673 -0.0046549998
0.076066002 0.016166 0.0070079998
0.076034002 0.0098179998 0.00089199998
0.074988 -0.007371 0.021348
0.075345002 -0.0087580001 0.011422
0.075331002 -0.0025490001 0.013892
0.064075999 -0.044323999 0.029878
0.053541001 -0.035921 0.030187
0.053768001 -0.04307 0.030169001
0.0748 -0.042737 0.014942
0.074897997 -0.051091999 0.014753
0.075065002 -0.046441 0.006904
0.051787999 -0.049435999 0.030014999
0.059083998 -0.050115999 0.029863
0.053768001 -0.04307 0.030169001
0.064554997 -0.030482 0.029624
0.053541001 -0.035921 0.030187
0.066398002 -0.039434999 0.029974001
0.073230997 -0.032807 0.027970999
0.073821999 -0.035337999 0.025231
0.073854998 -0.033670001 0.025501
0.073821999 -0.035337999 0.025231
0.072834998 -0.038755 0.028247001
0.073853001 -0.037459999 0.025266999
0.073853001 -0.037459999 0.025266999
0.074399002 -0.042952999 0.021529
0.074382 -0.034862999 0.022987001
0.073853001 -0.037459999 0.025266999
0.072834998 -0.038755 0.028247001
0.073963001 -0.039595999 0.025606999
0.074066997 -0.046103001 0.028827
0.074173003 -0.045596 0.025155
0.074134 -0.042932 0.025714001
0.072809003 -0.053284001 0.027542001
0.073969997 -0.049438 0.026139
0.074066997 -0.046103001 0.028827
0.045549002 0.035236001 -0.029744999
0.046829 0.043850001 -0.029498
0.052924 0.033386 -0.029382
0.074587002 0.048237 -0.026521999
0.068682998 0.051936001 -0.028376
0.074946001 0.054304 -0.026733
0.068682998 0.051936001 -0.028376
0.074077003 0.043325 -0.027628999
0.062633999 0.039312001 -0.028726
0.060385 0.016689001 -0.029069001
0.060284 0.0068930001 -0.029234
0.053511001 0.0081770001 -0.029510999
0.076475002 0.049679 -0.010318
0.076444 0.060865 -0.012573
0.076879002 0.057762001 0.001761
0.041846 -0.022988999 -0.029899999
0.045692001 -0.0137 -0.029947
0.05274 -0.023147 -0.029483
0.055266999 -0.01217 -0.029322
0.043028999 -0.0067369998 -0.029960999
0.053470001 -0.002691 -0.029506
0.062588997 -1e-06 -0.029029001
0.053470001 -0.002691 -0.029506
0.061790999 0.0050189998 -0.029166
0.068047002 -0.0089649996 -0.028716
0.063432001 -0.015085 -0.028933
0.062596001 -0.0063720001 -0.029208001
0.062588997 -1e-06 -0.029029001
0.064460002 2.4999999e-05 -0.028874001
0.062596001 -0.0063720001 -0.029208001
0.069770999 -0.0092289997 -0.028510001
0.070054002 -0.011077 -0.028487001
0.068047002 -0.0089649996 -0.028716
0.051047001 -0.036545999 -0.029477
0.057298001 -0.036075 -0.029338
0.057023998 -0.043166999 -0.029447
0.071787 -0.044399001 -0.028480001
0.063767999 -0.041772 -0.028981
0.071806997 -0.037602 -0.028426001
0.075704001 0.0054020002 -0.022399999
0.073808998 0.0049370001 -0.027386
0.075285003 0.011698 -0.025730999
0.072899997 -0.016435999 -0.027797
0.069291003 -0.016070999 -0.028773
0.07192 -0.013803 -0.028277
0.075618997 -0.0027060001 -0.018224999
0.073573001 -0.0043640002 -0.027629999
0.074809 0.000191 -0.026735
0.074968003 -0.028156999 -0.025929
0.074178003 -0.025378 -0.027122
0.074575998 -0.023603 -0.026114
0.050257001 -0.078763001 0.030005001
0.051002 -0.090947002 0.029761
0.057029001 -0.081816003 0.029898001
0.038125999 -0.095623001 0.029247001
0.034485999 -0.104063 0.029375
0.047168002 -0.101223 0.029255999
0.025622999 -0.109196 0.027148001
0.034485999 -0.104063 0.029375
0.021197001 -0.098151997 0.028927
0.039195001 -0.107881 0.029021
0.034485999 -0.104063 0.029375
0.033064 -0.109544 0.027466999
0.015151 -0.098949999 -0.029696999
0.0094370004 -0.10595 -0.029344
0.0079629999 -0.096899003 -0.030025
0.049933001 -0.065490998 0.030479999
0.055939 -0.071566001 0.030071
0.062086999 -0.062472001 0.030156
0.073682003 -0.065197997 0.025505999
0.071849003 -0.062318001 0.028511999
0.073293999 -0.067466997 0.026699999
0.074685998 -0.059324 0.019738
0.073615 -0.055953 0.025454
0.073496997 -0.059698001 0.025753999
0.073682003 -0.065197997 0.025505999
0.074399002 -0.064392999 0.022908
0.073789001 -0.062445998 0.024932999
0.073885001 -0.079452001 0.022926001
0.073482998 -0.077587001 0.025420999
0.073785 -0.086909004 0.021229999
0.067244001 -0.087627999 0.029134
0.068919003 -0.086742997 0.029064
0.063556001 -0.083995998 0.029817
0.06284 -0.091283001 0.029438
0.06498 -0.088653997 0.029324999
0.063556001 -0.083995998 0.029817
0.074181996 -0.081959002 0.019617001
0.074161999 -0.083238997 0.017743001
0.074633002 -0.077063002 0.015479
0.074897997 -0.051091999 0.014753
0.074432999 -0.052152 0.022600001
0.074685998 -0.059324 0.019738
0.074633002 -0.077063002 0.015479
0.074382 -0.084651001 0.014151
0.075009003 -0.078245997 0.0079549998
0.074890003 -0.087022997 -0.014762
0.074974 -0.084738001 -0.013514
0.074955001 -0.09087 -0.012768
0.075000003 -0.085775003 -0.0099959997
0.074955001 -0.09087 -0.012768
0.074974 -0.084738001 -0.013514
0.073871002 -0.107852 0.011671
0.073365003 -0.107424 0.020276001
0.070610002 -0.1105 0.013875
0.050310999 -0.052774999 -0.029548001
0.058797002 -0.053792 -0.029147999
0.050779998 -0.058479 -0.029733
0.072548002 -0.069957003 -0.027679
0.069734 -0.069697 -0.028856
0.072513998 -0.067419 -0.02767
0.069734 -0.069697 -0.028856
0.069100998 -0.07587 -0.028876999
0.061507002 -0.075193003 -0.029069999
0.075071 -0.078970999 -0.022042001
0.074401997 -0.074697003 -0.026466999
0.075069003 -0.068880998 -0.024982
0.071540996 -0.080968998 -0.028444
0.074222997 -0.079738997 -0.026565
0.074212998 -0.081561998 -0.026577
0.073394001 -0.077001996 -0.02723
0.071540996 -0.080968998 -0.028444
0.069100998 -0.07587 -0.028876999
0.074896 -0.088777997 -0.01709
0.074934997 -0.091600001 -0.0174
0.074651003 -0.087729 -0.025224
0.072241001 -0.094250001 -0.027615
0.074698001 -0.092928 -0.026162
0.074033 -0.098085001 -0.026621001
0.071516998 -0.09821 -0.027597999
0.070984997 -0.095624998 -0.027802
0.074033 -0.098085001 -0.026621001
0.073246002 -0.105724 -0.026304999
0.073087998 -0.103439 -0.027233001
0.073964998 -0.103283 -0.025991
-0.064324997 0.101488 -0.026446
-0.062249999 0.106896 -0.025080999
-0.061473999 0.102511 -0.02644
-0.074574001 0.098502003 -0.025578
-0.074566998 0.101841 -0.025150999
-0.073206998 0.102401 -0.025733
-0.057819001 0.098823003 -0.026492
-0.064324997 0.101488 -0.026446
-0.061473999 0.102511 -0.02644
-0.057014 0.106296 -0.025677999
-0.057597999 0.101579 -0.026594
-0.058966 0.102539 -0.026526
-0.075250998 0.075963996 -0.025227999
-0.069876999 0.080551997 -0.026521999
-0.070253998 0.073426001 -0.026617
-0.067688003 0.111931 0.013649
-0.065040998 0.11114 0.01898
-0.058718 0.111847 0.014163
-0.047545001 0.107313 0.029658999
-0.05136 0.10908 0.025857
-0.056230001 0.109092 0.026134999
-0.068985 0.11234 -0.005967
-0.071043 0.111821 -0.0052590002
