# .PCD v0.7 - Point Cloud Data file format
VERSION 0.7
FIELDS x y z
SIZE 4 4 4
TYPE F F F
COUNT 1 1 1
WIDTH 1402
HEIGHT 1
VIEWPOINT 0 0 0 0 0.5 0 0
POINTS 1402
DATA ascii
0.043726001 -0.063401997 0.010646
0.041843001 -0.063405 0.012513
0.040174 -0.063360997 0.012476
0.018304 0.049084 0.018433999
0.012375 0.047850002 0.018619999
0.013879 0.043745998 0.018982001
-0.024228999 -0.03201 0.02141
-0.022941001 -0.038474001 0.021186
-0.019088 -0.034279 0.021538001
0.027100001 -0.063125998 0.01275
0.030584 -0.063270003 0.020044999
0.025993001 -0.063088 0.01595
-0.0095659997 -0.059873998 0.020992
-0.014667 -0.057666 0.020943999
-0.013934 -0.061646 0.020073
-0.013357 -0.062447999 -0.0036780001
-0.009908 -0.062932998 -0.0054919999
-0.011435 -0.062185001 -0.00032699999
-0.021263 -0.062514 -0.0048790001
-0.025900999 -0.062898003 -0.0037789999
-0.025791001 -0.0625 -0.010187
-0.021263 -0.062514 -0.0048790001
-0.025791001 -0.0625 -0.010187
-0.020261999 -0.062261 -0.013395
-0.038913 -0.062514 -0.0070799999
-0.043182001 -0.062513001 -0.0091869999
-0.041225001 -0.062737003 -0.014046
-0.030366 -0.062620997 -0.0067579998
-0.029633 -0.062677003 -0.014188
-0.025791001 -0.0625 -0.010187
0.070115998 0.049575999 -0.01381
0.069937997 0.048294 -0.015664
0.070235997 0.052680999 -0.013964
0.068887003 0.031339999 -0.017960001
0.069684997 0.029153001 -0.015934
0.068168998 0.027596001 -0.018007999
0.002501 0.0077900002 0.0209
0.0015510001 0.0043959999 0.021136001
0.0056480002 0.0083839996 0.02093
0.016264001 0.0069180001 0.020912001
0.01413 0.010519 0.02079
0.012088 0.0054859999 0.021017
-0.010434 -0.00065 0.021095
-0.0084030004 0.007406 0.021098999
-0.011428 0.0064090001 0.021085
0.0098219998 0.022979001 -0.019483
0.013669 0.027683999 -0.019357
0.012063 0.019893 -0.019476
0.070064001 0.043547999 -0.011754
0.070014 0.040529002 -0.01192
0.069458 0.038720001 -0.017522
0.015033 -0.043430001 0.021003
0.014999 -0.037140999 0.02117
0.0098059997 -0.039964002 0.021263
0.069458 0.038720001 -0.017522
0.069454998 0.044261999 -0.017184
0.070064001 0.043547999 -0.011754
-0.0085699996 0.028200001 0.020214001
-0.0052990001 0.032839 0.019894
-0.012363 0.031513002 0.019920999
0.070800997 0.033822 -0.0084950002
0.069972999 0.031548999 -0.01323
0.069909997 0.034099001 -0.013075
0.056745 0.0077180001 0.019797999
0.053622 0.0029810001 0.019934
0.060454998 -0.00042299999 0.019795001
-0.0043469998 -0.0045429999 0.021195
-0.012702 -0.0073930002 0.021227
-0.005899 -0.0095499996 0.021353001
0.01413 0.010519 0.02079
0.016386 0.012058 0.020702999
0.014289 0.015095 0.020777
0.068168998 0.027596001 -0.018007999
0.065433003 0.027796 -0.01873
0.065779999 0.029038001 -0.018654
-0.0087599996 -0.062089 0.018753
-0.017649001 -0.062567003 0.015595
-0.01028 -0.062648997 0.013469
0.070543997 0.030486001 -0.010291
0.070615999 0.027539 -0.011353
0.069929004 0.030296 -0.014029
-0.071923003 -0.026963999 0.0082999999
-0.072108001 -0.026325 0.003823
-0.072044 -0.030954 0.005409
-0.037191998 -0.029284 -0.019952999
-0.033078998 -0.035456002 -0.020090999
-0.038293999 -0.034428999 -0.019978
0.066114001 0.061092999 0.015453
0.067849003 0.060222 0.016037
0.067948997 0.060819998 0.015138
-0.043724 0.037514001 -0.018352
-0.037758 0.035634 -0.018443
-0.042955 0.032184001 -0.018392
0.005074 -0.055472001 -0.021269999
0.00023600001 -0.054839998 -0.021283001
0.00367 -0.051267002 -0.020829
-0.029932 0.053084001 0.018137001
-0.030231999 0.056083001 0.018076001
-0.031950001 0.056683 0.018186999
-0.0062609999 -0.050990999 -0.020574
-0.0033 -0.048418999 -0.019285001
-0.0022519999 -0.052526001 -0.01945
-0.013357 -0.062447999 -0.0036780001
-0.0094999997 -0.062749997 -0.012528
-0.009908 -0.062932998 -0.0054919999
-0.0070270002 -0.049240999 0.021290001
-0.0045710001 -0.045242 0.021044999
-0.010481 -0.043581001 0.021175001
-0.018821999 -0.055190999 0.021392001
-0.02561 -0.0526 0.021535
-0.023926999 -0.058244001 0.021009
-0.01798 -0.062682003 0.0032639999
-0.023397001 -0.062761001 0.0023399999
-0.021263 -0.062514 -0.0048790001
0.056745 0.0077180001 0.019797999
0.063077003 0.006945 0.019396
0.062477 0.013505 0.019381
0.025974 -0.063244 -0.0042329999
0.021569001 -0.06323 -0.012358
0.025998 -0.063308001 -0.010932
-0.063872002 -0.028822999 0.020424001
-0.069421999 -0.026187001 0.019166
-0.068838 -0.033675 0.019151
0.013049 0.061703999 0.011528
0.011024 0.061239999 0.01605
0.016697001 0.061411001 0.015355
0.013655 0.059925001 -0.016563
0.01052 0.061154999 -0.010925
0.017858 0.061404999 -0.0088959998
0.014549 0.0097770002 -0.019978
0.016890001 0.017251 -0.019691
0.020446001 0.01273 -0.019781999
0.030131999 -0.063391 -0.002533
0.033004001 -0.063294999 0.0024250001
0.028403001 -0.063455001 -0.00071699999
0.051692002 0.062977001 -0.001375
0.049896002 0.062710002 0.003397
0.052733 0.062981002 0.00025499999
0.047927 0.062655002 0.0016129999
0.046895999 0.062597997 0.003724
0.049896002 0.062710002 0.003397
0.044728 0.062729999 -0.002572
0.043924 0.062701002 0.00208
0.047927 0.062655002 0.0016129999
0.047927 0.062655002 0.0016129999
0.043924 0.062701002 0.00208
0.046895999 0.062597997 0.003724
0.033341002 0.061686002 -0.0077940002
0.041393999 0.060263 -0.015431
0.035346001 0.059858002 -0.016411999
0.026426001 0.061492 -0.008378
0.029407 0.062445 -0.000485
0.033341002 0.061686002 -0.0077940002
0.026426001 0.061492 -0.008378
0.030188 0.060437001 -0.014338
0.024018999 0.05934 -0.017355001
0.067194998 -0.044714998 0.019223001
0.069549002 -0.044828001 0.018299
0.069089003 -0.041377001 0.018739
0.030042 0.058947001 -0.017314
0.024018999 0.05934 -0.017355001
0.030188 0.060437001 -0.014338
0.027689001 0.055087999 -0.018429
0.021152999 0.054799002 -0.018641001
0.024018999 0.05934 -0.017355001
0.02585 0.051615998 0.018257
0.026389999 0.044631999 0.018778
0.032462001 0.050117001 0.018362001
0.020358 0.045343999 0.018701
0.013879 0.043745998 0.018982001
0.013713 0.039287001 0.019262001
0.015636001 0.056952 -0.018064
0.013592 0.049617998 -0.018824
0.0074379998 0.053906001 -0.018516
0.0049020001 0.041095998 0.019207999
0.00157 0.045372002 0.018655
-0.00272 0.040759999 0.019100999
0.055893999 -0.059137002 -0.020329
0.056756999 -0.057617001 -0.020265
0.060077999 -0.061289001 -0.019564001
0.028077001 0.062263999 0.0082449997
0.028754 0.062316999 0.0037740001
0.027458001 0.062341999 0.0029150001
0.00844 0.017395001 -0.019634999
0.0045079999 0.013934 -0.019699
0.0046970001 0.019653 -0.019377001
0.044300001 -0.062268998 -0.020265
0.048625998 -0.062270001 -0.019636
0.047499999 -0.063032001 -0.018122001
0.048067998 -0.063679002 -0.011745
0.045299999 -0.063721001 -0.014963
0.048227999 -0.063330002 -0.015745001
0.045299999 -0.063721001 -0.014963
0.045474999 -0.063569002 -0.015895
0.048227999 -0.063330002 -0.015745001
0.068494998 -0.062596001 -0.0022849999
0.069551997 -0.062035002 0.001524
0.066979997 -0.063386001 0.0038980001
-0.071480997 0.034189001 -0.012018
-0.071082003 0.036451001 -0.016171999
-0.071243003 0.032375999 -0.016032999
0.069899999 -0.022810999 0.003305
0.069479004 -0.024371 -0.0030970001
0.069646001 -0.021415999 -0.0015979999
0.023148 0.062148999 0.004681
0.022801001 0.061687 0.012362
0.028077001 0.062263999 0.0082449997
0.0071820002 -0.016736001 -0.020677
0.0068310001 -0.011225 -0.020474
0.011728 -0.014815 -0.020617001
0.070689 -0.054481 0.0040330002
0.070414998 -0.051736999 0.0052470001
0.070860997 -0.055461999 0.0082080001
-0.019768 0.037857998 0.019493001
-0.023724001 0.028855 0.020145001
-0.017078999 0.032074001 0.019990999
0.025885999 -0.030801 -0.021063
0.030123999 -0.035029002 -0.021103
0.021454001 -0.036049001 -0.021137999
-0.000321 -0.063028 -0.002015
-0.0052 -0.063005 -0.0087379999
0.00024199999 -0.062766001 -0.011967
0.034164999 0.062391002 0.0022529999
0.033911001 0.062458001 -0.00039599999
0.032285001 0.06236 0.002166
0.032655999 0.062266 0.0050570001
0.034164999 0.062391002 0.0022529999
0.032285001 0.06236 0.002166
0.023212999 0.02031 0.020287
0.026944 0.021436 0.020117
0.021026 0.025573 0.020011
0.0074379998 0.053906001 -0.018516
0.013655 0.059925001 -0.016563
0.015636001 0.056952 -0.018064
0.022414001 -0.063291997 0.012997
0.021288 -0.063327998 0.013254
0.020489 -0.063270003 0.0095429998
0.012896 -0.063216001 0.014269
0.010185 -0.063088 0.010942
0.014299 -0.063161001 0.014242
0.008312 -0.063322 0.013767
0.006457 -0.06312 0.0094659999
0.010185 -0.063088 0.010942
0.066979997 -0.063386001 0.0038980001
0.060708001 -0.063865997 0.008591
0.063308999 -0.064069003 0.002017
-0.014667 -0.057666 0.020943999
-0.015334 -0.052370001 0.021393999
-0.018821999 -0.055190999 0.021392001
0.013664 -0.062323 -0.017614
0.012483 -0.060695 -0.020963
0.016210999 -0.059819002 -0.021247
-0.028644999 0.056727 0.018138001
-0.030231999 0.056083001 0.018076001
-0.026099 0.053443 0.018088
-0.038841002 0.028643001 -0.018614
-0.039081 0.023052 -0.018647
-0.044009998 0.026889 -0.018457999
0.021300999 0.056589998 0.018124999
0.022725999 0.057181001 0.018146001
0.021731 0.060178 0.017689001
-0.0094999997 -0.062749997 -0.012528
-0.013357 -0.062447999 -0.0036780001
-0.014382 -0.062396001 -0.012821
0.046227001 -0.059041999 -0.020857999
0.039907999 -0.060757 -0.020963
0.041558001 -0.056710999 -0.020994
-0.071764 0.050305001 -0.0097120004
-0.071883999 0.053123999 -0.0020900001
-0.071396001 0.056958001 -0.012323
-0.021709001 -0.0070489999 -0.019777
-0.016455 -0.006021 -0.019897999
-0.016821999 -0.0096530002 -0.019920999
0.059434999 -0.042957 -0.019793
0.062803999 -0.038389999 -0.019389
0.062706999 -0.046218999 -0.019509001
0.070456997 -0.025651 0.0091589997
0.069527 -0.028767999 0.018432001
0.070331998 -0.033622 0.012
0.037365001 -0.056449998 -0.021132
0.039907999 -0.060757 -0.020963
0.035569999 -0.061648998 -0.02042
-0.022844 0.042598002 0.019087
-0.019768 0.037857998 0.019493001
-0.015309 0.043837 0.018888
-0.048813999 0.063424997 0.001493
-0.047988001 0.063206002 0.0039809998
-0.046580002 0.063346997 0.001073
0.070331 -0.046161 0.012239
0.070444003 -0.051830001 0.017459
0.070671 -0.051330999 0.010192
-0.042029999 0.063065998 0.0046660001
-0.04284 0.062550999 0.0084729996
-0.039046001 0.062991001 0.0043859999
0.054441001 0.038424 -0.018955
0.051018 0.032790001 -0.01905
0.048004001 0.0374 -0.019006001
0.025775 0.029625 -0.019272
0.021229001 0.023972999 -0.019532001
0.020145001 0.030865001 -0.019266
0.037524 -0.063469 -0.0085509997
0.036311001 -0.063423 -0.0090340003
0.036339 -0.063585997 -0.012615
0.037524 -0.063469 -0.0085509997
0.036339 -0.063585997 -0.012615
0.038446002 -0.063510001 -0.0093090003
0.070018001 -0.056384001 0.017860999
0.069173001 -0.058216002 0.018479999
0.06944 -0.059223 0.018065
0.015033 -0.043430001 0.021003
0.0098059997 -0.039964002 0.021263
0.0087930001 -0.044856001 0.021157
-0.037209 -0.0032949999 0.020287
-0.039508998 0.0044399998 0.020176999
-0.042289 0.0038389999 0.020121999
0.048011001 0.060642999 -0.014736
0.051313002 0.059335999 -0.016941
0.046767 0.056988001 -0.018028
0.03314 0.049293999 -0.018921001
0.034603 0.053688001 -0.018587001
0.039926 0.050361 -0.018832
0.021152999 0.054799002 -0.018641001
0.027689001 0.055087999 -0.018429
0.024534 0.050110999 -0.018966001
0.0065580001 0.049157999 -0.018759999
0.0071950001 0.047963999 -0.018801
0.0049840002 0.043297 -0.018802
0.0049840002 0.043297 -0.018802
0.011018 0.042564001 -0.018843001
0.0073870001 0.038327999 -0.019059001
-0.036949001 0.016065 0.020651
-0.037160002 0.0092839999 0.020404
-0.029271999 0.019881001 0.020609999
0.065232001 -0.049449999 0.019504
0.06684 -0.054869 0.019284001
0.068558 -0.051904999 0.019268
-0.016158 -0.062932998 0.0118
-0.017649001 -0.062567003 0.015595
-0.017992999 -0.063009001 0.011118
-0.018421 0.062332999 0.007394
-0.024456 0.062419999 0.0064500002
-0.022841001 0.062137999 0.010129
-0.011766 0.018151 -0.019231001
-0.016373999 0.022462999 -0.019038999
-0.009788 0.021658 -0.019105
0.068455003 -0.054442 0.019145999
0.068599001 -0.055383001 0.019247999
0.070018001 -0.056384001 0.017860999
-0.047855999 0.063313 -0.0017350001
-0.050535999 0.063311003 0.00099199999
-0.048813999 0.063424997 0.001493
-0.004317 0.023186 0.020385999
-0.0083600003 0.020873001 0.020477001
-0.001661 0.018102 0.020638
0.0032259999 0.013872 0.020815
0.0086409999 0.014519 0.020785
0.0049959999 0.018811001 0.020575
0.048919 0.025800001 0.019761
0.051135 0.020302 0.019672999
0.055791002 0.022026001 0.019615
-0.066692002 -0.054466002 0.020570001
-0.068439998 -0.049894001 0.018834
-0.070165999 -0.053063001 0.016728001
0.063688003 -0.059455998 0.019641999
0.057728998 -0.056683999 0.020416001
0.062077001 -0.062302001 0.019912999
-0.009354 -0.053642999 0.021323999
-0.0042119999 -0.054106001 0.02122
-0.0070270002 -0.049240999 0.021290001
-0.012444 0.024336999 0.020353001
-0.0085699996 0.028200001 0.020214001
-0.012363 0.031513002 0.019920999
0.038446002 -0.063510001 -0.0093090003
0.039067 -0.063593 -0.010666
0.040863998 -0.063646004 -0.0089290002
0.037524 -0.063469 -0.0085509997
0.038446002 -0.063510001 -0.0093090003
0.040863998 -0.063646004 -0.0089290002
0.046895999 0.062597997 0.003724
0.043912001 0.062572002 0.004586
0.047382001 0.062422998 0.0079100002
-0.012435 -0.022252001 0.021446001
-0.015136 -0.028200001 0.021325
-0.0087360004 -0.024329999 0.021470999
0.056745 0.0077180001 0.019797999
0.051539 0.0086589996 0.019983999
0.053622 0.0029810001 0.019934
0.058067001 0.015341 -0.019142
0.055751 0.019951999 -0.019143
0.06199 0.02131 -0.018886
0.035372 -0.060345002 0.020509001
0.030584 -0.063270003 0.020044999
0.035980999 -0.063510001 0.018562
-0.037344001 -0.039356001 -0.020223999
-0.032136999 -0.041143 -0.020316999
-0.035344999 -0.042289998 -0.020374
-0.024456 0.062419999 0.0064500002
-0.022163 0.062532999 0.002689
-0.023099 0.062486999 0.0032269999
0.028363001 -0.050170001 -0.021407001
0.033349 -0.051034 -0.021361001
0.027983001 -0.053994998 -0.021345001
-0.045458999 -0.050533 -0.020191001
-0.040924001 -0.050678998 -0.020211
-0.042789999 -0.055233002 -0.020195
-0.071910001 -0.052763999 -0.0091840001
-0.071765997 -0.059376001 -0.014284
-0.071386002 -0.060052 -0.011466
0.051018 0.032790001 -0.01905
0.060054 0.033527002 -0.018886
0.055537 0.025674 -0.019133
0.038476001 0.018797999 -0.019531
0.036499999 0.022859 -0.019435
0.042810999 0.025567999 -0.01936
0.0022849999 -0.062988997 0.0093120001
0.003214 -0.063106 0.014215
0.000111 -0.062875003 0.015023
0.014337 -0.063252002 -0.010897
0.0084910002 -0.062249999 -0.016148999
0.013664 -0.062323 -0.017614
-0.023793001 -0.039673001 -0.020572999
-0.020891 -0.042500999 -0.020793
-0.024626 -0.045194 -0.020785
-0.069797002 -0.062452 0.018835999
-0.066993997 -0.063325003 0.014033
-0.065022998 -0.063115001 0.017348001
-0.020891 -0.042500999 -0.020793
-0.020416001 -0.044858001 -0.020810001
-0.024626 -0.045194 -0.020785
0.039597001 0.0093280002 -0.019795001
0.036768999 0.013258 -0.019668
0.042004999 0.013659 -0.019650999
0.05799 -0.039349001 0.019781001
0.051291998 -0.037618 0.020453
0.056867 -0.044755001 0.019903
0.001406 -0.049121 -0.018803
-0.0033 -0.048418999 -0.019285001
-0.00042500001 -0.045311 -0.020052001
-0.053667001 0.060061 -0.016191
-0.054003 0.057459 -0.017081
-0.056285001 0.057360001 -0.017114
0.054703999 -0.033867002 0.019990001
0.051291998 -0.037618 0.020453
0.05799 -0.039349001 0.019781001
-0.046580002 0.063346997 0.001073
-0.047988001 0.063206002 0.0039809998
-0.044418 0.063271999 0.001321
-0.042041998 0.05728 -0.017295999
-0.042318001 0.059657998 -0.016897
-0.039684001 0.056320999 -0.01747
0.069479004 -0.024371 -0.0030970001
0.069513999 -0.029301999 -0.0020699999
0.069316998 -0.027687 -0.0051790001
0.069307998 -0.030716 -0.0057410002
0.069513999 -0.029301999 -0.0020699999
0.069845997 -0.039487999 -0.0031600001
0.069155999 -0.028516 -0.0087909997
0.069316998 -0.027687 -0.0051790001
0.069307998 -0.030716 -0.0057410002
0.067050003 0.004888 -0.018584
0.064434998 0.0042249998 -0.018919
0.063607 0.0078729996 -0.018982001
-0.035477001 -0.050767999 -0.020571999
-0.036125001 -0.046032 -0.020401999
-0.032035999 -0.050168999 -0.020749001
-0.0077940002 0.014905 0.020806
-0.001661 0.018102 0.020638
-0.0083600003 0.020873001 0.020477001
-0.039508998 0.0044399998 0.020176999
-0.037160002 0.0092839999 0.020404
-0.042289 0.0038389999 0.020121999
-0.072108001 -0.026325 0.003823
-0.071923003 -0.026963999 0.0082999999
-0.071897 -0.024367999 0.0094529996
-0.019688001 -0.053332001 -0.021114999
-0.013423 -0.050195001 -0.021396
-0.016898001 -0.056019999 -0.021153999
-0.024626 -0.045194 -0.020785
-0.030572999 -0.046337001 -0.020675
-0.027696 -0.043345999 -0.020525999
-0.017599 -0.049442999 -0.021124
-0.013423 -0.050195001 -0.021396
-0.019688001 -0.053332001 -0.021114999
0.051222 0.027371 -0.019246001
0.051018 0.032790001 -0.01905
0.055537 0.025674 -0.019133
-0.049911998 0.060036998 0.018657999
-0.05737 0.060077999 0.018835999
-0.054995999 0.058621 0.018790999
0.068648003 -0.046229001 0.018962
0.069849998 -0.048229001 0.017574999
0.069549002 -0.044828001 0.018299
-0.016295999 -0.059618 -0.021067999
-0.012387 -0.061340999 -0.018957
-0.016656 -0.061306 -0.018820001
0.021414001 -0.060596 -0.021193
0.021183999 -0.057225998 -0.021392001
0.025397999 -0.060070999 -0.021244001
0.01455 -0.062095001 0.020354999
0.012838 -0.056832001 0.02077
0.010239 -0.061810002 0.020386999
-0.065773003 0.0095159998 -0.017998001
-0.068759002 0.0086350003 -0.017595001
-0.068805002 0.0099060005 -0.017533001
0.050593 -0.059774 -0.020493001
0.046227001 -0.059041999 -0.020857999
0.048652001 -0.055736002 -0.020763
0.045981999 -0.044836 0.020461001
0.056867 -0.044755001 0.019903
0.051291998 -0.037618 0.020453
-0.030352 0.062527001 0.0069510001
-0.034878999 0.062728003 0.0055499999
-0.036026999 0.062442001 0.0092040002
0.046227001 -0.059041999 -0.020857999
0.045017999 -0.054217 -0.020907
0.048652001 -0.055736002 -0.020763
0.051989999 -0.063258998 -0.016193001
0.051656 -0.062208999 -0.019708
0.053886 -0.062174 -0.020235
0.053886 -0.062174 -0.020235
0.055762999 -0.063417003 -0.019079
0.051989999 -0.063258998 -0.016193001
0.044300001 -0.062268998 -0.020265
0.039907999 -0.060757 -0.020963
0.046227001 -0.059041999 -0.020857999
0.045017999 -0.054217 -0.020907
0.046227001 -0.059041999 -0.020857999
0.041558001 -0.056710999 -0.020994
0.037365001 -0.056449998 -0.021132
0.035569999 -0.061648998 -0.02042
0.032744002 -0.059215002 -0.021155
0.045017999 -0.054217 -0.020907
0.038848002 -0.051603001 -0.021269999
0.044829 -0.049749002 -0.021046
0.041558001 -0.056710999 -0.020994
0.039907999 -0.060757 -0.020963
0.037365001 -0.056449998 -0.021132
0.037365001 -0.056449998 -0.021132
0.032744002 -0.059215002 -0.021155
0.032827001 -0.055597998 -0.021232
0.046243001 -0.032728001 0.020405
0.046007 -0.037629001 0.020446001
0.051291998 -0.037618 0.020453
-0.042029999 0.063065998 0.0046660001
-0.041131999 0.063083 0.002544
-0.042633999 0.063120998 0.0022450001
0.001198 0.049947001 -0.018618001
-0.0020910001 0.051134001 -0.018395999
0.00199 0.055291999 -0.018310999
0.068599001 -0.055383001 0.019247999
0.068609998 -0.056906998 0.019277999
0.070018001 -0.056384001 0.017860999
0.069173001 -0.058216002 0.018479999
0.070018001 -0.056384001 0.017860999
0.068609998 -0.056906998 0.019277999
0.001198 0.049947001 -0.018618001
0.00199 0.055291999 -0.018310999
0.0074379998 0.053906001 -0.018516
-0.0050090002 0.051265001 -0.018285999
-0.0080540003 0.052862 -0.018084999
-0.0058869999 0.056619 -0.017720001
0.06684 -0.054869 0.019284001
0.068609998 -0.056906998 0.019277999
0.068599001 -0.055383001 0.019247999
0.001198 0.049947001 -0.018618001
-0.002327 0.045143999 -0.018743001
-0.0020910001 0.051134001 -0.018395999
0.068309002 -0.059473999 0.019283
0.068609998 -0.056906998 0.019277999
0.06684 -0.054869 0.019284001
0.0079899998 -0.059928998 -0.021338001
0.012342 -0.056279 -0.021576
0.012483 -0.060695 -0.020963
-0.002327 0.045143999 -0.018743001
0.0049840002 0.043297 -0.018802
-0.001129 0.039641 -0.018885
0.041161001 -0.060233001 0.020171
0.035372 -0.060345002 0.020509001
0.040155999 -0.063415997 0.019245001
0.028837999 -0.063519999 -0.017952999
0.029155999 -0.060756002 -0.021060999
0.032056998 -0.062474001 -0.019672001
0.001406 -0.049121 -0.018803
0.00367 -0.051267002 -0.020829
0.00023600001 -0.054839998 -0.021283001
0.062573999 0.036506999 0.019274
0.060162 0.043609999 0.018967001
0.057225 0.036717001 0.01928
-0.0056369998 -0.062812001 0.0076199998
-0.0022720001 -0.063004002 0.0099680005
-0.0053460002 -0.062717997 0.013487
-0.071074001 -0.058660001 -0.0032180001
-0.070881002 -0.059471 -0.00064400001
-0.071290001 -0.058175001 0.000199
0.064172 -0.010167 -0.018927
0.069335997 -0.010732 -0.017968999
0.064542003 -0.012115 -0.018862
-0.014382 -0.062396001 -0.012821
-0.013357 -0.062447999 -0.0036780001
-0.016829999 -0.062249999 -0.0085190004
-0.069954 -0.062243 -0.010297
-0.067653 -0.062996 -0.010949
-0.068728 -0.063078001 -0.0064940001
-0.071886003 0.061648 -0.001549
-0.070606001 0.063258 0.00017100001
-0.071874999 0.062323 -0.001217
-0.036506999 -0.062716 -0.014481
-0.040197998 -0.061974999 -0.01908
-0.036316998 -0.061891001 -0.019521
-0.01969 -0.048477001 0.021411
-0.018277001 -0.041802 0.021443
-0.024276 -0.042682 0.021571999
-0.043513998 -0.044429 -0.020033
-0.039694 -0.043083999 -0.020283001
-0.040801998 -0.045928001 -0.02022
-0.037687998 -0.062876999 4.5000001e-05
-0.038913 -0.062514 -0.0070799999
-0.034419 -0.062654004 -8.3999999e-05
-0.045458999 -0.050533 -0.020191001
-0.049775999 -0.049584001 -0.019742999
-0.046767998 -0.045116998 -0.019864
-0.054386999 -0.062907003 0.0032949999
-0.053036999 -0.062739 -0.003855
-0.050926998 -0.062885001 -0.00031999999
-0.052041002 -0.028961999 -0.01912
-0.054724999 -0.02359 -0.018944001
-0.051201001 -0.023522001 -0.019134
0.022355 0.062116001 -0.0011690001
0.017167 0.061942998 -0.0026410001
0.014949 0.061888002 -2.4000001e-05
-0.030011 -0.062748 0.012971
-0.031753998 -0.062615 0.015131
-0.031378999 -0.062771 0.012681
-0.019768 0.037857998 0.019493001
-0.027437 0.033727001 0.019901
-0.023724001 0.028855 0.020145001
0.013664 -0.062323 -0.017614
0.018436 -0.063061997 -0.016314
0.014337 -0.063252002 -0.010897
-0.071319997 0.060077999 -0.0031679999
-0.071676001 0.059156001 -0.0081799999
-0.071869001 0.057303 -0.002105
0.021288 -0.063327998 0.013254
0.022414001 -0.063291997 0.012997
0.021655999 -0.0634 0.015688
0.00051500002 -0.054336999 0.021198999
-0.001014 -0.048620999 0.021178
-0.0042119999 -0.054106001 0.02122
-0.0039229998 -0.062279999 0.017295999
0.0043429998 -0.063029997 0.016058
0.001621 -0.062192 0.020071
0.0068259998 -0.06329 0.013538
0.0080660004 -0.063249998 0.016129
0.0043429998 -0.063029997 0.016058
0.033397 -0.063373998 -0.012999
0.029627001 -0.063352004 -0.011655
0.028837999 -0.063519999 -0.017952999
-0.065852001 -0.06357 0.0046279998
-0.063395001 -0.063092001 0.0091869999
-0.067263 -0.063138001 0.0095699998
-0.063995004 -0.057186998 0.020603999
-0.059032999 -0.056577001 0.020905999
-0.059448998 -0.046572998 0.021244001
-0.0040159998 -0.060851 0.020578001
-0.0042119999 -0.054106001 0.02122
-0.0095659997 -0.059873998 0.020992
-0.0095659997 -0.059873998 0.020992
-0.0087599996 -0.062089 0.018753
-0.0040159998 -0.060851 0.020578001
-0.035477001 -0.050767999 -0.020571999
-0.032035999 -0.050168999 -0.020749001
-0.032306001 -0.054278001 -0.020547999
-0.0040159998 -0.060851 0.020578001
0.001621 -0.062192 0.020071
-0.00098799996 -0.059379 0.020842001
-0.0092359995 -0.059129 -0.020475
-0.0052089998 -0.053828001 -0.021257
-0.0040810001 -0.060541999 -0.01963
-0.011128 -0.047731999 0.02128
-0.015334 -0.052370001 0.021393999
-0.009354 -0.053642999 0.021323999
-0.065912999 0.017552 0.01967
-0.062578 0.021002 0.019903
-0.065614 0.021186 0.019571001
-0.0059440001 -0.061698001 -0.01815
-0.0040810001 -0.060541999 -0.01963
-0.001152 -0.061154999 -0.019037999
-0.013491 0.052542001 -0.018158
-0.01438 0.053654999 -0.018041
-0.010461 0.058309 -0.017462
0.038927998 -0.063429996 -0.0018579999
0.033004001 -0.063294999 0.0024250001
0.033488002 -0.063386001 -0.0037100001
-0.047842 0.051445 -0.017865
-0.052508999 0.048016001 -0.017924
-0.052765001 0.052545998 -0.017867999
-0.056965999 0.046048999 -0.017819
-0.059009001 0.052085999 -0.017797999
-0.052765001 0.052545998 -0.017867999
0.028403001 -0.063455001 -0.00071699999
0.029007001 -0.063423 0.00085100002
0.025826 -0.063305996 0.002757
0.025974 -0.063244 -0.0042329999
0.028403001 -0.063455001 -0.00071699999
0.025826 -0.063305996 0.002757
-0.058623999 0.041600998 -0.017804001
-0.063980997 0.044050001 -0.017712999
-0.062298998 0.049162999 -0.017727001
-0.066212997 0.045807999 -0.017603001
-0.068544 0.046312999 -0.017127
-0.068271004 0.047378 -0.017227
-0.065150999 0.052533999 -0.017599
-0.066206001 0.051483002 -0.017583
-0.068674996 0.055727001 -0.017415
-0.062298998 0.049162999 -0.017727001
-0.066212997 0.045807999 -0.017603001
-0.066316001 0.049389999 -0.017585
-0.056965999 0.046048999 -0.017819
-0.058623999 0.041600998 -0.017804001
-0.062298998 0.049162999 -0.017727001
-0.047166999 -0.060238998 -0.019804001
-0.049867 -0.061269 -0.017867999
-0.050035 -0.058747999 -0.019617001
-0.013689 -0.05838 -0.021313
-0.0092359995 -0.059129 -0.020475
-0.012387 -0.061340999 -0.018957
-0.0042010001 0.035992 -0.018864
-0.0033720001 0.031060001 -0.019114999
-0.0092799999 0.03348 -0.018941
0.036974002 -0.063437 -0.0061340001
0.033914998 -0.063349999 -0.007429
0.034596 -0.063375004 -0.0082599996
-0.043754 -0.060901001 -0.019805999
-0.047166999 -0.060238998 -0.019804001
-0.045628 -0.056072 -0.019873001
-0.058623999 0.041600998 -0.017804001
-0.054930001 0.03599 -0.01811
-0.058800001 0.034805998 -0.018021001
0.033004001 -0.063294999 0.0024250001
0.029163999 -0.063450001 0.0070110001
0.029185999 -0.063436002 0.0044379998
-0.023092 -0.031017 -0.020423001
-0.026541 -0.025897 -0.020196
-0.020616001 -0.025957 -0.020316999
0.029758999 0.031867001 -0.019414
0.034449998 0.032350998 -0.019261001
0.032719001 0.024854001 -0.019478999
-0.012141 0.038589999 0.019332999
-0.017078999 0.032074001 0.019990999
-0.012363 0.031513002 0.019920999
-0.050783999 -0.043806002 -0.019467
-0.054574002 -0.050748002 -0.019521
-0.055450998 -0.044932999 -0.019454001
0.013879 0.043745998 0.018982001
0.0088010002 0.041055001 0.019016
0.013713 0.039287001 0.019262001
0.014877 -0.063312002 0.00019999999
0.011845 -0.063245997 -0.007956
0.016567999 -0.063491002 -0.00612
-0.054574002 -0.050748002 -0.019521
-0.059863999 -0.045074999 -0.019064
-0.055450998 -0.044932999 -0.019454001
0.068802997 -0.047961 0.018933
0.068648003 -0.046229001 0.018962
0.065232001 -0.049449999 0.019504
-0.062206 0.043648999 0.019189
-0.068966001 0.041017 0.01901
-0.061381999 0.039099 0.019347999
0.029627001 -0.063352004 -0.011655
0.033397 -0.063373998 -0.012999
0.032666001 -0.063372999 -0.0087639997
-0.066371001 -0.044557001 -0.018410999
-0.062486999 -0.041474 -0.018666999
-0.059863999 -0.045074999 -0.019064
-0.070983 0.031752001 0.013349
-0.071203999 0.029407 0.0098050004
-0.071044996 0.026464 0.012783
-0.071142003 0.027829001 0.009474
-0.071044996 0.026464 0.012783
-0.071203999 0.029407 0.0098050004
-0.057866 -0.059296999 -0.019197
-0.062986001 -0.058789998 -0.01877
-0.056609001 -0.055466998 -0.019386001
0.021414001 -0.060596 -0.021193
0.018798999 -0.062641002 -0.020013001
0.016210999 -0.059819002 -0.021247
0.070106998 0.0049919998 0.013769
0.070519 0.0035359999 0.0097350003
0.070602998 0.0092890002 0.010547
0.025826 -0.063305996 0.002757
0.02341 -0.063524 0.0067030001
0.020114001 -0.063486002 0.0032009999
-0.048439998 -0.062468 -0.013045
-0.049226999 -0.062615998 -0.0042829998
-0.053171001 -0.062555 -0.013262
0.028403001 -0.063455001 -0.00071699999
0.025974 -0.063244 -0.0042329999
0.030131999 -0.063391 -0.002533
0.033004001 -0.063294999 0.0024250001
0.030131999 -0.063391 -0.002533
0.033488002 -0.063386001 -0.0037100001
0.033488002 -0.063386001 -0.0037100001
0.030131999 -0.063391 -0.002533
0.030438 -0.063419998 -0.0053110002
-0.043366 0.052680001 -0.017773001
-0.04332 0.048154999 -0.018145001
-0.047842 0.051445 -0.017865
-0.0084260004 0.039200999 -0.01897
-0.012939 0.046463002 -0.018587001
-0.002327 0.045143999 -0.018743001
-0.0084260004 0.039200999 -0.01897
-0.001129 0.039641 -0.018885
-0.0042010001 0.035992 -0.018864
-0.063980997 0.044050001 -0.017712999
-0.066212997 0.045807999 -0.017603001
-0.062298998 0.049162999 -0.017727001
-0.0089790002 -0.061705999 -0.017930999
-0.0059440001 -0.061698001 -0.01815
-0.0094999997 -0.062749997 -0.012528
-0.066844001 0.040026002 -0.017601
-0.058623999 0.041600998 -0.017804001
-0.064985 0.035232998 -0.017720999
-0.012444 0.024336999 0.020353001
-0.013628 0.020516001 0.02049
-0.0083600003 0.020873001 0.020477001
-0.062532 -0.062898003 -0.013189
-0.059556998 -0.062622003 -0.015636999
-0.057303 -0.062654004 -0.01331
-0.071676001 -0.013965 -0.012082
-0.071502 -0.0062279999 -0.010473
-0.071543001 -0.010256 -0.013635
0.034164999 0.062391002 0.0022529999
0.038185 0.062526003 0.001474
0.033911001 0.062458001 -0.00039599999
0.005074 -0.055472001 -0.021269999
0.0089969998 -0.054458998 -0.021624999
0.0079899998 -0.059928998 -0.021338001
-0.071415 -0.05931 -0.016047001
-0.071567997 -0.057826001 -0.015993999
-0.070228003 -0.059618998 -0.017688001
-0.071765997 -0.059376001 -0.014284
-0.071567997 -0.057826001 -0.015993999
-0.071415 -0.05931 -0.016047001
-0.071540996 -0.057199001 -0.0062719998
-0.071386002 -0.060052 -0.011466
-0.070446 -0.060989 -0.0081259999
-0.001005 0.012784 0.020950999
-0.001661 0.018102 0.020638
-0.0077940002 0.014905 0.020806
-0.071653999 -0.056864001 -0.015659001
-0.071183003 -0.055920001 -0.017211
-0.071567997 -0.057826001 -0.015993999
-0.071653999 -0.056864001 -0.015659001
-0.071567997 -0.057826001 -0.015993999
-0.071765997 -0.059376001 -0.014284
-0.071653999 -0.056864001 -0.015659001
-0.071656004 -0.055484999 -0.015474
-0.071183003 -0.055920001 -0.017211
0.0032259999 0.013872 0.020815
0.0056480002 0.0083839996 0.02093
0.008994 0.0090239998 0.020899
0.0086409999 0.014519 0.020785
0.0032259999 0.013872 0.020815
0.008994 0.0090239998 0.020899
0.037634999 -0.017201001 0.020515
0.043037001 -0.023581 0.020395
0.044865001 -0.017057 0.02039
0.047012001 0.01427 0.020104
0.045582 0.019352 0.019969
0.041809998 0.010522 0.020163
0.016567999 -0.063491002 -0.00612
0.019522 -0.063516997 -0.001311
0.014877 -0.063312002 0.00019999999
-0.07192 -0.053902999 0.005752
-0.071834996 -0.055101998 0.0049009998
-0.071836002 -0.054336 0.0087909997
-0.023893001 -0.062803 0.012844
-0.024042999 -0.062716 0.015459
-0.028223 -0.062620997 0.015363
-0.033698 -0.062772997 0.012499
-0.035744999 -0.062774003 0.011588
-0.03064 -0.062985003 0.0098299999
-0.071176 -0.0069769998 0.013411
-0.071335003 -0.0041899998 0.0093019996
-0.071295001 -0.010187 0.012911
-0.070831001 0.064081997 -0.005624
-0.071534999 0.064208999 -0.0050539998
-0.070952997 0.064130001 -0.0046760002
-0.070909001 0.044009 0.018276
-0.071073003 0.041287001 0.012991
-0.070404001 0.037827 0.018273
-0.066923 0.021888001 -0.017805001
-0.062077999 0.019735999 -0.018049
-0.067094997 0.017725 -0.017836999
-0.071157001 0.022787999 0.0046990002
-0.071387 0.027237 -0.00093099999
-0.071162 0.022267001 -0.0012150001
-0.071333997 0.033264 0.0083809998
-0.071203999 0.029407 0.0098050004
-0.071185999 0.031528 0.011145
-0.071358003 0.022346999 -0.0064719999
-0.071534999 0.017425001 -0.0086350003
-0.071331002 0.015484 0.001022
-0.061381999 0.039099 0.019347999
-0.068966001 0.041017 0.01901
-0.065902002 0.030121 0.019289
-0.071084 0.024084 0.0095060002
-0.071044996 0.026464 0.012783
-0.071101002 0.02619 0.009451
-0.071245 0.028292 0.0065279999
-0.071101002 0.02619 0.009451
-0.071142003 0.027829001 0.009474
-0.071057998 0.033050999 0.011528
-0.070983 0.031752001 0.013349
-0.070955999 0.034212001 0.012198
0.070719004 0.061631002 0.00079600001
0.070239998 0.061487 0.001319
0.069647998 0.060021002 0.001442
-0.038849 0.0084619997 -0.018866001
-0.034581002 0.0050499998 -0.019121001
-0.041992001 0.0053710002 -0.018939
-0.058012001 0.014091 -0.01822
-0.062153999 0.012533 -0.018103
-0.062077999 0.019735999 -0.018049
-0.071387 0.027237 -0.00093099999
-0.071358003 0.022346999 -0.0064719999
-0.071162 0.022267001 -0.0012150001
-0.003817 0.0046080002 -0.019905001
-0.001263 -0.0016289999 -0.020006999
-0.0047320002 -0.002997 -0.020116
0.0601 0.063107997 -0.001938
0.064727999 0.063277997 -0.001627
0.064314 0.062859997 -0.0056489999
0.031860001 0.062334999 0.0038020001
0.032655999 0.062266 0.0050570001
0.032285001 0.06236 0.002166
-0.027024999 -0.012995 -0.019784
-0.032377999 -0.014865 -0.019743999
-0.031021001 -0.0090260003 -0.019654
-0.049049001 0.020075999 -0.018369
-0.046004999 0.013518 -0.018809
-0.052825 0.016305 -0.018483
-0.031931002 0.01547 -0.019060999
-0.031851001 0.0078849997 -0.019149
-0.038849 0.0084619997 -0.018866001
-0.018208999 -0.030353 -0.020482
-0.020616001 -0.025957 -0.020316999
-0.013137 -0.022907 -0.020424001
-0.0034390001 -0.038961999 -0.021159999
-0.00182 -0.02991 -0.020801
0.0027320001 -0.036435001 -0.021019001
0.069931999 -0.058656 0.011785
0.070625 -0.055799998 0.0133
0.069766 -0.059486002 0.014286
0.029407 0.062445 -0.000485
0.032285001 0.06236 0.002166
0.033911001 0.062458001 -0.00039599999
0.069200002 0.001545 0.01863
0.070372999 -0.001137 0.010734
0.070106998 0.0049919998 0.013769
-0.048248999 0.045263 -0.018031999
-0.047842 0.051445 -0.017865
-0.04332 0.048154999 -0.018145001
-0.010962 -0.047839999 -0.021131
-0.0061809998 -0.048269998 -0.020519
-0.0062609999 -0.050990999 -0.020574
0.016496999 0.062070001 0.0039380002
0.018029001 0.062174998 0.003848
0.014949 0.061888002 -2.4000001e-05
0.018351 0.062128998 0.007925
0.020592 0.062176 0.0032180001
0.018029001 0.062174998 0.003848
0.0084910002 -0.062249999 -0.016148999
0.014337 -0.063252002 -0.010897
0.011845 -0.063245997 -0.007956
0.030959001 -0.063322 0.013582
0.032348 -0.063297004 0.014083
0.032981001 -0.063295998 0.016264001
0.004032 -0.046636 -0.021360001
0.002575 -0.042316001 -0.021175999
0.0068109999 -0.041469 -0.021204
-0.037776999 -0.062711 0.014748
-0.040484998 -0.062783003 0.013343
-0.035744999 -0.062774003 0.011588
0.022058001 0.062144998 0.002327
0.023148 0.062148999 0.004681
0.023414999 0.062167998 0.001722
0.01052 0.061154999 -0.010925
0.017167 0.061942998 -0.0026410001
0.017858 0.061404999 -0.0088959998
0.018029001 0.062174998 0.003848
0.016496999 0.062070001 0.0039380002
0.018351 0.062128998 0.007925
0.01438 0.062019002 0.002789
0.010839 0.062073 0.007524
0.016496999 0.062070001 0.0039380002
-0.057866 -0.059296999 -0.019197
-0.061280001 -0.061241999 -0.018019
-0.062986001 -0.058789998 -0.01877
-0.0052990001 0.032839 0.019894
0.0029859999 0.030598 0.019957
-0.000233 0.035735998 0.019622
0.014382 0.002443 0.021007
0.012088 0.0054859999 0.021017
0.0079279998 0.0025760001 0.021163
-0.032136999 -0.041143 -0.020316999
-0.027696 -0.043345999 -0.020525999
-0.030572999 -0.046337001 -0.020675
-0.034674998 -0.062408 -0.0086390004
-0.038913 -0.062514 -0.0070799999
-0.036506999 -0.062716 -0.014481
0.060800001 0.062902004 0.0066650002
0.056951001 0.062942997 0.0028029999
0.053502999 0.062528998 0.0083900001
0.006455 0.022941999 0.020184999
-0.000497 0.026926 0.020182
0.0014290001 0.02201 0.020359
0.021288 -0.063327998 0.013254
0.021655999 -0.0634 0.015688
0.019850999 -0.063317001 0.013389
0.013209 -0.063065 0.0082670003
0.01637 -0.063285001 0.0065100002
0.017394001 -0.063216001 0.012653
0.018536 -0.063291997 0.012085
0.017394001 -0.063216001 0.012653
0.01637 -0.063285001 0.0065100002
0.01616 -0.063265003 0.015796
0.019877 -0.062268998 0.020059001
0.01455 -0.062095001 0.020354999
-0.069416001 -0.004189 -0.017724
-0.07158 -0.0047439998 -0.016697999
-0.071209997 -0.0021329999 -0.017139001
-0.041885 -0.040491998 0.021543
-0.048333 -0.038846999 0.021516001
-0.044743001 -0.044643 0.02152
0.01438 0.062019002 0.002789
0.016496999 0.062070001 0.0039380002
0.014949 0.061888002 -2.4000001e-05
-0.071082003 0.036451001 -0.016171999
-0.068497002 0.038571 -0.017130001
-0.068772003 0.036676999 -0.017004
-0.068838 0.026287001 -0.017047999
-0.070873 0.025203001 -0.016269
-0.069421001 0.027455 -0.016941
-0.058012001 0.014091 -0.01822
-0.062077999 0.019735999 -0.018049
-0.056703001 0.019275 -0.018207001
-0.068805002 0.0099060005 -0.017533001
-0.068759002 0.0086350003 -0.017595001
-0.071602002 0.0099200001 -0.015555
-0.047704 -0.013081 -0.019100999
-0.046904001 -0.0059870002 -0.018967999
-0.041793 -0.012747 -0.019410999
-0.059342999 -0.063084997 0.011272
-0.059007999 -0.063059002 0.012631
-0.060568001 -0.063036002 0.012355
-0.071057998 0.033050999 0.011528
-0.071333997 0.033264 0.0083809998
-0.071185999 0.031528 0.011145
0.046243001 -0.032728001 0.020405
0.043037001 -0.023581 0.020395
0.037886001 -0.030828999 0.020684
0.003214 -0.063106 0.014215
0.0043429998 -0.063029997 0.016058
0.000111 -0.062875003 0.015023
-0.024042999 -0.062716 0.015459
-0.021404 -0.062853999 0.012981
-0.017649001 -0.062567003 0.015595
-0.063028999 -0.062854998 -0.0031699999
-0.065448999 -0.063390002 -0.0029180001
-0.064315997 -0.063176997 -0.006999
-0.070404001 0.037827 0.018273
-0.070915997 0.036022 0.013721
-0.070983 0.031752001 0.013349
-0.0082609998 -0.040238 0.021384001
-0.003828 -0.038479 0.021415999
-0.0078609996 -0.034276001 0.021523001
-0.042094 -0.062587 -0.001833
-0.046298001 -0.062392 -0.005105
-0.043182001 -0.062513001 -0.0091869999
0.053068001 -0.050308 0.020031
0.049458001 -0.054361999 0.020498
0.054292999 -0.053479001 0.020319
0.0601 0.063107997 -0.001938
0.060800001 0.062902004 0.0066650002
0.064727999 0.063277997 -0.001627
0.029407 0.062445 -0.000485
0.022355 0.062116001 -0.0011690001
0.025277 0.062295999 0.00087500003
0.01052 0.061154999 -0.010925
0.013655 0.059925001 -0.016563
0.0060780002 0.059547 -0.016967
-0.0050329999 0.060013998 -0.016125999
-0.010386 0.061241001 -0.0094919996
-0.0045380001 0.061466001 -0.0084269997
-0.034733001 0.061928 -0.0087479996
-0.031205 0.062744997 -0.0017659999
-0.027877999 0.061694998 -0.0085549997
-0.0046069999 0.062047001 0.0026390001
0.000371 0.061825 -0.000363
-0.005438 0.062026002 -0.00075499999
-0.058731999 0.063685 0.001111
-0.060120001 0.063782997 0.00092600001
-0.057181999 0.063452996 0.0033489999
0.065871 0.063074999 0.0048429999
0.065664001 0.062738001 0.008862
0.069569997 0.062674001 0.0060490002
0.069813997 0.057712998 0.018818
0.070161998 0.056777999 0.018637
0.070845 0.058871999 0.01771
0.068545997 0.061937999 0.013488
0.066821001 0.062327001 0.012517
0.066114001 0.061092999 0.015453
0.068545997 0.061937999 0.013488
0.068340003 0.061462 0.014506
0.069555998 0.059563 0.013784
0.066821001 0.062327001 0.012517
0.065664001 0.062738001 0.008862
0.062302999 0.061538 0.014883
0.069144003 0.060169 0.010571
0.06865 0.061810002 0.011983
0.069555998 0.059563 0.013784
0.028077001 0.062263999 0.0082449997
0.030719999 0.062307999 0.0035000001
0.028754 0.062316999 0.0037740001
0.027294001 -0.0061940001 -0.020335
0.033643 -0.00075000001 -0.020246999
0.032802999 -0.0094269998 -0.020284001
0.050894 0.020027 -0.019208999
0.055751 0.019951999 -0.019143
0.052305002 0.014176 -0.019357
0.052607 -0.024842 0.020282
0.048909999 -0.021399001 0.020044001
0.049144 -0.028313 0.020516001
-0.0065299999 0.010237 -0.019632
-0.00028499999 0.014034 -0.019644
-0.003817 0.0046080002 -0.019905001
0.067071997 0.017535999 0.019193999
0.069312997 0.015189 0.018246001
0.06763 0.018828001 0.019114999
0.069628 -0.060164999 0.017719001
0.069481 -0.061227001 0.017991001
0.069476001 -0.060846001 0.016018
0.068832003 -0.032108001 0.018790999
0.069527 -0.028767999 0.018432001
0.067736 -0.027295999 0.019188
0.023212999 0.02031 0.020287
0.021026 0.025573 0.020011
0.016603 0.020705 0.020269999
0.066306002 -0.061623 -0.017932
0.068383001 -0.061161 -0.01491
0.066843003 -0.063321002 -0.012547
-0.000233 0.035735998 0.019622
0.0029859999 0.030598 0.019957
0.0062210001 0.035172999 0.019745
0.038010001 -0.0048199999 0.020463999
0.032513 -0.0040480001 0.020643
0.035358999 -0.01004 0.020726999
0.014382 0.002443 0.021007
0.019048 -0.00088599999 0.020866999
0.016264001 0.0069180001 0.020912001
0.049144 -0.028313 0.020516001
0.043037001 -0.023581 0.020395
0.046243001 -0.032728001 0.020405
0.057957001 -0.050748002 0.020124
0.062311001 -0.045954999 0.019709
0.056867 -0.044755001 0.019903
0.037599999 -0.063328996 0.012477
0.037138999 -0.063101001 0.01431
0.035834 -0.063279003 0.012372
0.02485 -0.045272 0.021196
0.033475999 -0.040178999 0.020904001
0.027783999 -0.039425001 0.020939
0.00097300002 -0.0049609998 0.021173
0.005479 -0.005169 0.021160999
0.0079279998 0.0025760001 0.021163
-0.00069700001 -0.014518 0.021326
-0.005899 -0.0095499996 0.021353001
-0.0061010001 -0.014368 0.021393999
0.00073799997 -0.027454 0.021197001
0.00098200003 -0.01891 0.021328
-0.0037459999 -0.028038001 0.021176999
0.0079640001 -0.031214001 0.021167001
0.0037209999 -0.030243 0.021249
0.0054830001 -0.036639001 0.021283999
0.023629 -0.038461 0.0209
0.028179999 -0.031807002 0.020936999
0.022392999 -0.030466 0.021003
0.052836999 -0.063735001 0.0041570002
0.046147998 -0.063684002 0.002632
0.052141 -0.063676998 -0.001104
0.018138001 -0.055187002 -0.021454999
0.016046001 -0.051132001 -0.021702999
0.022572 -0.050347 -0.021710999
0.027100001 -0.063125998 0.01275
0.023352999 -0.063199997 0.011665
0.024311 -0.063206002 0.010513
0.035834 -0.063279003 0.012372
0.037138999 -0.063101001 0.01431
0.034221999 -0.063282996 0.012724
0.035629999 -0.055491999 0.020664001
0.041161001 -0.060233001 0.020171
0.042626999 -0.052163001 0.0208
0.0096840002 0.061852001 -0.0025279999
0.014949 0.061888002 -2.4000001e-05
0.017167 0.061942998 -0.0026410001
-0.054225001 0.0087329997 -0.018415
-0.051454 0.001936 -0.018878
-0.055975001 0.001385 -0.018557999
-0.058655001 -0.039995 0.020923
-0.06865 -0.039356001 0.018959001
-0.059448998 -0.046572998 0.021244001
-0.041492999 -0.062568001 0.019904001
-0.036584999 -0.062596001 0.0166
-0.037090998 -0.061896998 0.020655001
-0.071846999 -0.054331999 0.002143
-0.071737997 -0.055668 0.002566
-0.07192 -0.053902999 0.005752
-0.068934999 0.016208 -0.017333999
-0.067094997 0.017725 -0.017836999
-0.066788003 0.013783 -0.017854
-0.062830999 0.028948 -0.017998001
-0.066923 0.021888001 -0.017805001
-0.067036003 0.027781 -0.017678
-0.062153999 0.012533 -0.018103
-0.058012001 0.014091 -0.01822
-0.062252 0.0070870002 -0.018170999
-0.029058 -0.061978001 0.019857001
-0.03373 -0.061717 0.021244001
-0.031753998 -0.062615 0.015131
0.033070002 0.0070259999 0.020533999
0.027558999 0.0099109998 0.020571001
0.026745999 0.0041999999 0.020752
0.040888 0.0056269998 0.020476
0.032660998 0.00337 0.020574
0.037245002 0.00054400001 0.020469001
0.037245002 0.00054400001 0.020469001
0.032513 -0.0040480001 0.020643
0.038010001 -0.0048199999 0.020463999
0.069187 -0.058370002 -0.0075099999
0.068494998 -0.062596001 -0.0022849999
0.068264998 -0.062245 -0.0065859999
0.066843003 -0.063321002 -0.012547
0.068264998 -0.062245 -0.0065859999
0.065814003 -0.063821003 -0.007404
0.032513 -0.0040480001 0.020643
0.02757 -0.002746 0.020791
0.026668999 -0.010522 0.020861
0.042454001 -0.0082569998 0.02035
0.042927001 -0.0055160001 0.020369001
0.040596001 -0.009331 0.020406
0.035358999 -0.01004 0.020726999
0.026668999 -0.010522 0.020861
0.032060001 -0.013724 0.020639
0.050593 -0.059774 -0.020493001
0.048625998 -0.062270001 -0.019636
0.046227001 -0.059041999 -0.020857999
0.026745999 0.0041999999 0.020752
0.019048 -0.00088599999 0.020866999
0.02757 -0.002746 0.020791
0.014949 0.061888002 -2.4000001e-05
0.013098 0.062045 0.0018279999
0.01438 0.062019002 0.002789
-0.033096999 -0.035250001 0.021617999
-0.027507 -0.035303 0.02146
-0.030995 -0.029599 0.021470999
-0.070983 0.031752001 0.013349
-0.070424996 0.032306999 0.018317999
-0.070404001 0.037827 0.018273
-0.048248999 0.045263 -0.018031999
-0.042477001 0.041790999 -0.018258
-0.047609001 0.040475 -0.018111
0.062063001 -0.040555999 0.019305
0.066969998 -0.037634 0.019168001
0.066298999 -0.03596 0.019179
0.069476001 -0.060846001 0.016018
0.068444997 -0.061887 0.012365
0.069766 -0.059486002 0.014286
-0.068619996 -0.00801 0.019308999
-0.068715997 -0.002441 0.019641001
-0.070632003 -0.003274 0.015988
0.051222 0.027371 -0.019246001
0.050894 0.020027 -0.019208999
0.046333998 0.020207001 -0.019343
0.061494 0.012904 -0.019068001
0.064966999 0.014001 -0.018732
0.063827999 0.010309 -0.018933
0.069061004 0.020145001 -0.018243
0.069402002 0.016480001 -0.018237
0.0647 0.016395001 -0.018738
0.033507001 0.061117999 0.016416
0.032067001 0.05875 0.018221
0.038637999 0.060540002 0.017185001
0.0022499999 -0.06233 -0.018199001
0.0029529999 -0.059912 -0.020300001
0.0049620001 -0.061948001 -0.018965
-0.071836002 -0.054336 0.0087909997
-0.071841002 -0.056281999 0.0056409999
-0.071755998 -0.057521001 0.0064050001
-0.068862997 0.014055 -0.017453
-0.071131997 0.013361 -0.016883999
-0.068934999 0.016208 -0.017333999
0.069982 0.059337001 0.0072869998
0.071056999 0.053351998 0.005132
0.070409998 0.058944002 0.0041510002
-0.066885002 0.0041080001 -0.017875001
-0.062252 0.0070870002 -0.018170999
-0.060633998 0.0023769999 -0.018282
0.066629998 -0.062812001 0.019440001
0.068676002 -0.062715001 0.018878
0.068309002 -0.059473999 0.019283
-0.054055002 -0.0030660001 -0.018657001
-0.055378001 -0.0072619999 -0.018780001
-0.05875 -0.0020590001 -0.018336
-0.055610999 0.030137001 -0.018131999
-0.062830999 0.028948 -0.017998001
-0.058800001 0.034805998 -0.018021001
0.017624 0.022551 -0.019437
0.016890001 0.017251 -0.019691
0.012063 0.019893 -0.019476
-0.068093002 0.021672999 -0.017504999
-0.068089999 0.023242 -0.017491
-0.066923 0.021888001 -0.017805001
-0.070734002 0.021098001 -0.016812
-0.068089999 0.023242 -0.017491
-0.068093002 0.021672999 -0.017504999
-0.070734002 0.021098001 -0.016812
-0.071326002 0.021251 -0.012796
-0.070873 0.025203001 -0.016269
-0.070873 0.025203001 -0.016269
-0.068089999 0.023242 -0.017491
-0.070734002 0.021098001 -0.016812
-0.068093002 0.021672999 -0.017504999
-0.066923 0.021888001 -0.017805001
-0.069003999 0.020055 -0.017225999
-0.069003999 0.020055 -0.017225999
-0.069458 0.018281 -0.017077999
-0.070734002 0.021098001 -0.016812
-0.069003999 0.020055 -0.017225999
-0.067094997 0.017725 -0.017836999
-0.069458 0.018281 -0.017077999
-0.069069996 -0.012886 -0.017720999
-0.066523001 -0.012676 -0.018124999
-0.067952 -0.014398 -0.017937999
-0.072407 -0.040366001 0.001182
-0.072109997 -0.040532999 0.008138
-0.072199002 -0.032733999 0.0024009999
0.028179999 -0.031807002 0.020936999
0.027783999 -0.039425001 0.020939
0.033475999 -0.040178999 0.020904001
0.034903001 0.062348001 0.0051699998
0.035124999 0.062337 0.0084429998
0.037193999 0.062445998 0.0046620001
-0.016158 -0.062932998 0.0118
-0.013957 -0.063098997 0.0070059998
-0.013524 -0.062739998 0.01289
-0.071502 -0.0062279999 -0.010473
-0.071427003 -0.0091399997 -0.016983001
-0.071543001 -0.010256 -0.013635
-0.056825999 -0.036042999 -0.019056
-0.056809999 -0.040681001 -0.019212
-0.060979001 -0.035693001 -0.018704001
-0.069458 0.018281 -0.017077999
-0.067094997 0.017725 -0.017836999
-0.068934999 0.016208 -0.017333999
-0.035601001 -0.049219001 0.021365
-0.038143001 -0.043584 0.021307999
-0.039081 -0.050492 0.021475
0.065688998 0.025006 -0.018805001
0.065609001 0.026450001 -0.018777
0.069104999 0.023557 -0.018038999
0.065688998 0.025006 -0.018805001
0.069104999 0.023557 -0.018038999
0.065839 0.023053 -0.018839
0.065688998 0.025006 -0.018805001
0.064828999 0.024490001 -0.018858001
0.065609001 0.026450001 -0.018777
-0.015113 0.059361 -0.016861999
-0.010894 0.060150001 -0.015434
-0.010461 0.058309 -0.017462
-0.010386 0.061241001 -0.0094919996
-0.014659 0.060929 -0.012387
-0.017531 0.062089 -0.002992
-0.02495 0.057243999 -0.017634001
-0.023646999 0.055631001 -0.017801
-0.028727001 0.051445998 -0.018146999
-0.020776 0.062475 0.0024590001
-0.022163 0.062532999 0.002689
-0.024456 0.062419999 0.0064500002
-0.022521 0.062329002 -0.002259
-0.022163 0.062532999 0.002689
-0.020776 0.062475 0.0024590001
-0.029128 0.059383001 -0.017117999
-0.032480001 0.060185 -0.016166
-0.024814 0.060531002 -0.014181
-0.017531 0.062089 -0.002992
-0.010619 0.062029999 -0.002508
-0.010386 0.061241001 -0.0094919996
0.0068310001 -0.011225 -0.020474
0.0071820002 -0.016736001 -0.020677
0.001053 -0.01282 -0.020385999
0.069890998 -0.017492 -0.00022
